# .PCD v0.7 - Point Cloud Data file format
VERSION 0.7
FIELDS x y z
SIZE 4 4 4
TYPE F F F
COUNT 1 1 1
WIDTH 1488
HEIGHT 1
VIEWPOINT 0 0 0 1 0 0 0
POINTS 1488
DATA ascii
-4.9225664 3.1215465 -0.56534761
-4.9333329 3.3490729 -0.57557249
-4.9425259 3.5836051 -0.49663395
-4.9600954 3.8314347 -0.50732845
-4.9622478 4.0790892 -0.42418423
-4.954082 4.3073363 -0.4105508
-4.9925032 4.488162 -0.50410044
-4.9734344 4.8996286 -0.46189338
-4.9831715 5.111845 -0.52996564
-4.9632754 5.3719125 -0.44631967
-4.986733 5.6075149 -0.50170702
-4.9969063 5.8690138 -0.51687247
-4.9970551 6.1306729 -0.53181273
-4.9641228 6.9035573 -0.40619034
16.831326 6.9760613 -0.47698706
16.785652 7.240253 -0.48545045
-3.0927582 7.4767036 -0.46429029
-2.8073642 7.5205736 -0.55735683
-2.7833488 7.5262103 -0.5504539
-2.099771 7.5616755 -0.53606999
-1.8774426 7.5028582 -0.54940736
-1.6620923 7.5377564 -0.52407479
16.762159 7.5163631 -0.49473181
-5.0098381 7.6528573 -0.48835024
-3.4658704 7.6404729 -0.43284583
-3.3300683 7.6293397 -0.5707649
-2.9494777 7.6471486 -0.42341238
-2.6276078 7.604188 -0.55182022
-2.4950438 7.6454902 -0.55330521
-2.3246212 7.6287508 -0.54731333
-2.1501136 7.6078782 -0.54156947
-1.8737079 7.6695814 -0.40621999
-1.6278923 7.6055598 -0.59750491
-1.3151623 7.755621 -0.40241304
-5.0097647 7.8543301 -0.48601317
-2.9013553 7.8363724 -0.43103528
-1.4120566 7.8766007 -0.59108061
-1.3900164 7.8376417 -0.53260189
16.76404 7.8071795 -0.50497377
-5.0268173 8.1197548 -0.54136217
-1.2955623 8.1278687 -0.54835868
16.792511 8.1148062 -0.51626921
-5.018002 8.3623047 -0.49957013
-2.661083 8.2719307 -0.44849229
-2.392261 8.2389069 -0.44238612
-1.2028637 8.5837002 -0.58897042
-5.0264335 8.6550207 -0.5133478
-1.1969255 8.6791201 -0.5807603
-5.0374279 8.9100428 -0.53951252
-1.1078917 8.8311157 -0.44400191
-1.082039 9.281682 -0.45568764
-5.0719075 9.5236654 -0.56586951
-5.0658031 9.6557064 -0.56102246
-1.077889 9.6996546 -0.49601418
-5.0814295 9.8395166 -0.5793283
-1.0757864 9.8612223 -0.48303369
-5.1015167 10.128934 -0.58793616
-5.0750856 10.775901 -0.41263703
-1.1253017 10.777476 -0.52739847
-4.9937191 -18.194374 -0.39614904
-4.9853148 -17.392082 -0.38714126
-4.9832778 -17.189339 -0.3797791
-4.9770994 -16.604311 -0.37315369
-4.9771047 -16.29306 -0.36539304
-4.9876051 -15.924199 -0.36145294
-4.973556 -15.485298 -0.35261136
-4.9624496 -15.203759 -0.34854102
-4.9595308 -14.715418 -0.34032992
-4.9639292 -14.597214 -0.33813706
-4.9566765 -14.023659 -0.32892033
-4.9640322 -13.470926 -0.32025528
-4.9547205 -12.912407 -0.31123489
-4.9479299 -12.488772 -0.30233043
-4.9489379 -12.309052 -0.3038373
-4.9525375 -12.054653 -0.29527754
-4.955205 -11.832845 -0.29709312
-4.9370255 -11.605882 -0.28767091
-4.9498343 -11.29704 -0.2860671
-4.94592 -10.887934 -0.27988395
-4.9478426 -10.523982 -0.2785368
-4.973393 -10.370787 -0.37054074
-4.9336214 -10.12421 -0.26843193
-4.9678059 -9.848896 -0.36183333
-4.9254951 -9.406105 -0.26308933
-4.9624653 -9.3980293 -0.34842795
-4.9673376 -9.1683521 -0.34999791
-4.9611645 -8.9089317 -0.34173918
-4.9613752 -8.6921902 -0.3340354
-4.9569921 -8.5557137 -0.33752251
-4.9674296 -7.7135782 -0.3971611
-4.9810123 -7.5673065 -0.39624089
-4.9773645 -7.3620729 -0.38963547
-4.9668789 -7.0786877 -0.38207206
-4.9580965 -6.8608303 -0.376385
-4.9463339 -6.6461782 -0.37072271
-4.9375916 -6.3508148 -0.36342728
-4.9312134 -6.0705309 -0.35672539
-4.9300356 -5.8945947 -0.3555828
-4.9402599 -5.6565399 -0.35123521
-4.9357681 -5.3352971 -0.3447867
-4.9282174 -5.0965986 -0.39994544
-4.9390635 -4.8849673 -0.39483482
-4.9371109 -4.6000051 -0.38765809
-4.9287767 -4.3228745 -0.38063636
-4.9345908 -4.066967 -0.37507087
-4.938982 -3.8194506 -0.36988643
-4.9298563 -3.5725889 -0.3644059
-4.9318314 -3.3407798 -0.36009872
-4.9241328 -3.1110115 -0.35559201
-4.9334431 -2.8501022 -0.33268118
-4.9273376 -2.6226549 -0.32997668
-4.9315367 -2.3632479 -0.32821673
-4.9275103 -2.1094203 -0.32654884
-4.9253378 -1.8642133 -0.32558113
-4.9347601 -1.6386933 -0.32043338
-4.9338655 -1.3734159 -0.29911411
-4.9285431 -1.1261812 -0.29979128
-4.9329119 -0.88570821 -0.30158001
-4.9265795 -0.62494153 -0.30330414
-4.9241371 -0.36788461 -0.30576932
-4.9241314 -0.094840653 -0.29093549
-4.9222279 0.15282698 -0.3049165
-4.9208322 0.37468159 -0.32187641
-4.9233174 0.58717549 -0.34037068
-4.923286 0.63114852 -0.31330332
-4.9283485 0.86868429 -0.33275986
-4.9277253 1.1314049 -0.33906969
-4.9304199 1.3809019 -0.34559202
-4.9240556 1.5974997 -0.34795487
-4.9166465 1.6205382 -0.35524353
-4.9211397 1.8654728 -0.35969925
-4.9239717 2.1364026 -0.3787992
-4.9273834 2.358417 -0.36625859
-4.9178267 2.5919528 -0.37699646
-4.9185538 2.6093304 -0.3723169
-4.9210634 2.8576198 -0.35672069
-4.9185076 3.117981 -0.3553403
-4.9248657 3.3588347 -0.36458457
-4.9269953 3.6401885 -0.34263071
-4.9432731 3.8758919 -0.35397208
-4.9425411 4.1093826 -0.36462212
-4.9440041 4.3561249 -0.37615809
-4.9499364 4.5918946 -0.37693095
-4.9538379 4.6235199 -0.38921803
-4.92103 4.858005 -0.29705954
-4.9417343 5.1509962 -0.36078399
-4.9414845 5.3774414 -0.33405244
-4.9295263 5.6272635 -0.30688754
-4.9277534 5.8577104 -0.33351815
-4.9371099 6.112206 -0.33111274
-4.9458556 6.3775816 -0.36282319
-4.9439383 6.6277046 -0.34737855
-4.9540682 6.8466568 -0.35744584
-4.9583502 7.1129742 -0.3773284
16.860849 7.1225863 -0.33950371
-4.965066 7.3750243 -0.37411267
16.821642 7.3759389 -0.34316048
-4.9495611 7.5783939 -0.31939024
-3.3194399 7.4933186 -0.32174599
-1.6176937 7.5344858 -0.34020865
-1.3989434 7.5883536 -0.29746675
-4.9582458 7.7239151 -0.35644174
-3.1140532 7.6173625 -0.32997769
-1.4350616 7.6069422 -0.38419467
16.808302 7.6441073 -0.34755394
-1.2390467 7.8810387 -0.32953376
16.814123 7.9252648 -0.35255238
-4.9609489 8.0270796 -0.32718426
-3.1321049 8.120862 -0.29844761
-2.8373899 8.1875906 -0.38371623
-2.5400388 8.1619654 -0.34465742
-2.1789501 8.1894512 -0.35896876
-1.9116511 8.1579704 -0.28143406
-1.1529611 8.1134892 -0.30561161
16.89496 8.1735268 -0.20251352
-4.9644027 8.2836037 -0.33474904
-3.0533612 8.2561674 -0.30566201
-2.9870062 8.273941 -0.296269
-2.6142647 8.2016411 -0.38879776
-2.3974333 8.2482214 -0.32880652
-2.0180125 8.2583265 -0.29355124
-1.1199332 8.3946714 -0.34229264
16.834196 8.2180786 -0.35806045
-4.9737515 8.5603352 -0.34305429
-1.1177177 8.4084721 -0.35987672
16.896744 8.4748316 -0.21104059
-1.0541897 8.631382 -0.27475092
-4.9874039 8.8592625 -0.35212481
-4.9885035 9.1506157 -0.36078984
-1.0177689 9.0763826 -0.29889348
-5.0020351 9.4760609 -0.37073463
-0.99985886 9.5261431 -0.30162808
-5.0213003 9.744463 -0.37908858
-5.0407391 9.9531145 -0.38572076
-5.0382266 10.311911 -0.39722097
-1.0130123 10.2491 -0.32420748
-1.0312983 10.657978 -0.36200714
-1.0779804 11.33507 -0.35877982
-4.8980112 -18.865721 -0.075899422
-4.8986874 -17.895077 -0.075169548
-4.9019027 -17.146973 -0.073058859
-4.9017482 -16.891281 -0.076135993
-4.8898597 -16.359829 -0.071597643
-4.9051099 -16.041794 -0.07643649
-4.9076695 -15.709234 -0.07071168
-4.8991351 -15.239117 -0.076652229
-4.8867097 -15.008292 -0.069357686
-4.8916583 -14.457359 -0.072688594
-4.8901215 -13.844825 -0.072444536
-4.8956518 -13.293926 -0.072371051
-4.8906608 -12.831511 -0.066142447
-4.8939829 -12.682737 -0.078278534
-4.884439 -12.353398 -0.065417729
-4.8945312 -12.16317 -0.078807496
-4.8867207 -11.919544 -0.06487307
-4.8962193 -11.681983 -0.079385012
-4.8774462 -11.487449 -0.064221226
-4.8895798 -11.213418 -0.079854146
-4.890624 -11.120027 -0.063931912
-4.9050612 -10.823623 -0.080710471
-4.8785281 -10.726066 -0.06333784
-4.8883934 -10.390091 -0.07207936
-4.8796463 -10.038668 -0.062623456
-4.8790212 -9.995306 -0.081548959
-4.89289 -9.7057533 -0.07247752
-4.8894653 -9.427556 -0.062171381
-4.8809896 -9.3135948 -0.082927182
-4.8953247 -9.0836086 -0.11975951
-4.8804889 -8.8407001 -0.061588831
-4.8893967 -8.7138557 -0.084485441
-4.8822594 -8.495554 -0.073256582
-4.9041324 -8.3484392 -0.14955114
-4.9084749 -8.149786 -0.15756024
-4.9051476 -7.8947868 -0.15601617
-4.9063492 -7.6582036 -0.15478212
-4.9016862 -7.403913 -0.14274281
-4.9124088 -7.3792567 -0.18876576
-4.9013271 -7.1450853 -0.15169415
-4.8993888 -6.864912 -0.13860093
-4.9013262 -6.5862761 -0.14937286
-4.899601 -6.3927412 -0.14847362
-4.9058137 -6.1423635 -0.15857151
-4.874083 -5.9029379 -0.13514939
-4.9004478 -5.6378779 -0.16775876
-4.8876791 -5.4103837 -0.12274686
-4.8949327 -5.1378655 -0.14418888
-4.8982038 -4.8511086 -0.14370444
-4.8985186 -4.5869675 -0.15394329
-4.8898964 -4.3615313 -0.13229147
-4.8950262 -4.1232309 -0.14293832
-4.8893023 -3.8939514 -0.11621082
-4.8847589 -3.650893 -0.10959944
-4.889328 -3.3912373 -0.13098648
-4.8846579 -3.1303608 -0.10692774
-4.8892698 -2.8696387 -0.12047012
-4.8907852 -2.6242874 -0.13410543
-4.8835659 -2.3825264 -0.11757582
-4.8868523 -2.1175075 -0.1249546
-4.889102 -1.8747435 -0.12698394
-4.8876095 -1.625742 -0.1252591
-4.885622 -1.3578373 -0.13171421
-4.886282 -1.1254714 -0.13842884
-4.8852744 -0.88799536 -0.13318667
-4.8894143 -0.62848127 -0.14448866
-4.8865891 -0.37526366 -0.13971338
-4.8798189 -0.10457174 -0.12189744
-4.8767414 0.13151181 -0.10189682
-4.8820677 0.38828734 -0.10856211
-4.8830438 0.61649716 -0.12271229
-4.8796806 0.86420876 -0.12175363
-4.8815579 1.1249454 -0.1263579
-4.8793411 1.3710377 -0.13047424
-4.8836889 1.6151717 -0.13129185
-4.8877087 1.8689008 -0.14475769
-4.8846545 2.141988 -0.14555985
-4.8861847 2.3873782 -0.14472291
-4.8846936 2.5974228 -0.15603735
-4.891552 2.6330328 -0.15385647
-4.8857141 2.8741665 -0.13640147
-4.8860588 3.1255803 -0.14145505
-4.8773441 3.3738017 -0.14020361
-4.8850803 3.6219921 -0.15682219
-4.8846722 3.8868172 -0.15077859
-4.8851156 4.1392851 -0.16108221
-4.8858166 4.3806973 -0.15536875
-4.8874302 4.6221399 -0.17080946
-4.8930316 4.8627028 -0.18438095
-4.8748837 5.1024499 -0.14761011
-4.8779922 5.3926802 -0.14244811
-4.8738289 5.6300902 -0.13039713
-4.8749976 5.88729 -0.12949139
-4.8790264 6.1515131 -0.13352001
-4.8810697 6.3348503 -0.13631265
-4.8806653 6.6162434 -0.10562424
-4.8791771 6.8784227 -0.12064862
-4.8923616 7.1364574 -0.11208473
-4.8863616 7.3457999 -0.11440544
16.925421 7.3094401 -0.17818989
-4.9027705 7.5204849 -0.15425213
-3.5014162 7.5036178 -0.096688502
-3.3863328 7.5622087 -0.10039449
-1.51394 7.5941668 -0.13525912
-1.3530664 7.5677156 -0.12443747
16.91243 7.5072346 -0.11889601
-4.8927155 7.6518621 -0.080292501
-3.3018682 7.6421103 -0.13582619
-1.1903636 7.6745338 -0.068751737
16.913662 7.6981087 -0.054565981
-4.9059534 7.8892145 -0.12096337
-3.3397353 7.8053818 -0.079555593
-1.1268648 7.8529706 -0.092296399
16.880177 7.916152 -0.12554854
-4.8991747 8.1679382 -0.085667938
-3.3176455 8.1005421 -0.099297717
-3.0903244 8.1807508 -0.11143261
-2.8315017 8.1439209 -0.10903661
-2.5653284 8.1573534 -0.10708299
-2.3146312 8.1684456 -0.11717242
-2.0995269 8.1461582 -0.085386485
-1.9153033 8.1725349 -0.10073596
-1.6917748 8.1779852 -0.0050503397
-1.0395913 8.1326561 -0.060127571
-4.925302 8.2409382 -0.16384302
-3.3357651 8.3627911 -0.146025
-1.9076139 8.2055883 -0.12784232
-1.7739469 8.2785549 -0.14838482
-1.042365 8.2816277 -0.14267612
16.901157 8.2559938 -0.060169719
-4.9169631 8.47334 -0.12774709
-1.0127184 8.4685402 -0.12244295
-0.95039493 8.5267296 -0.00095282029
16.946707 8.5688076 -0.063351899
-4.9377508 8.7787151 -0.13141507
-0.97911817 8.7932081 -0.15043133
-0.97529042 8.8379107 -0.12741151
-4.9318075 9.0564156 -0.13448723
-4.9358206 9.3620358 -0.13806972
-0.9221403 9.2657042 -0.066989914
-4.9452748 9.6927052 -0.095672026
-0.93918687 9.6943054 -0.16466714
-4.9740767 9.8226461 -0.19455877
-0.9377231 9.8934841 -0.14233834
-4.9565239 10.146276 -0.10500172
-0.95771939 10.727273 -0.15463208
-4.8458924 -15.059216 0.19141877
-4.8443241 -14.322517 0.18747714
-4.8396378 -13.707962 0.17804781
-4.841114 -13.21094 0.18010706
-4.8571115 -13.132252 0.15932007
-4.8488007 -12.737072 0.17348015
-4.8496695 -12.55684 0.14981847
-4.8468761 -12.271283 0.1670291
-4.8463349 -12.032957 0.14110306
-4.8422046 -11.826665 0.16090575
-4.8449154 -11.486264 0.14417684
-4.8421974 -11.059948 0.13765916
-4.8544474 -10.692183 0.13190183
-4.8510833 -10.3121 0.12610012
-4.8425026 -9.9422941 0.12050778
-4.8479586 -9.6633387 0.13141607
-4.8569617 -9.5914888 0.099771939
-4.8408298 -9.2879887 0.11050651
-4.8510609 -9.0729027 0.12351363
-4.8560586 -8.9449987 0.08873421
-4.8484421 -8.7135029 0.10163599
-4.8487029 -8.5236712 0.11625167
-4.8469429 -8.3042736 0.13632651
-4.8430929 -8.0431299 0.13141765
-4.8410988 -7.8120942 0.14691813
-4.8485589 -7.7835259 0.10658491
-4.8468361 -7.5654659 0.12235665
-4.8460593 -7.335382 0.11785209
-4.8406057 -7.1111221 0.15322021
-4.8402343 -6.9010572 0.1486426
-4.8439708 -6.6228247 0.13123429
-4.8370714 -6.3427677 0.14805883
-4.8431225 -6.1370535 0.13210568
-4.8320713 -5.8727217 0.11936689
-4.8442059 -5.6263533 0.12121367
-4.8450632 -5.3883457 0.11617577
-4.846818 -5.0990996 0.10031265
-4.8411722 -4.8800325 0.13464865
-4.8385735 -4.6524267 0.12919062
-4.8398285 -4.3880448 0.12300126
-4.8417015 -4.1357727 0.11726364
-4.8362532 -3.8880258 0.13794255
-4.8394504 -3.6306119 0.13131745
-4.844583 -3.4008913 0.11290602
-4.8336034 -3.362556 0.13719577
-4.8383923 -3.1158552 0.11874322
-4.8402843 -2.8619113 0.11293539
-4.8393135 -2.6351709 0.11741254
-4.835968 -2.3804517 0.12443301
-4.84026 -2.1319814 0.11854018
-4.834549 -1.8810819 0.12414622
-4.8360386 -1.6223572 0.12919757
-4.8392673 -1.3776312 0.13174336
-4.8358545 -1.1398544 0.12261968
-4.836062 -0.8804816 0.1175002
-4.8363433 -0.6249305 0.11274554
-4.8347878 -0.36700052 0.11973844
-4.8357582 -0.12417457 0.13689339
-4.8336396 0.11917848 0.14134344
-4.8304667 0.38539556 0.15032788
-4.8302822 0.40908301 0.12420097
-4.8286843 0.62717474 0.13424404
-4.8316793 0.86028469 0.13171571
-4.8331099 1.1186273 0.12943742
-4.8329639 1.3705014 0.13179083
-4.831749 1.63661 0.12198489
-4.8293228 1.8834667 0.12456366
-4.8302126 2.123889 0.1236898
-4.8321838 2.3722403 0.12319095
-4.83109 2.6285143 0.12294003
-4.8309174 2.8716826 0.12294427
-4.8295717 3.116926 0.13046694
-4.8302088 3.3747592 0.11569697
-4.829299 3.6195869 0.11928192
-4.8337297 3.880497 0.088443324
-4.8298655 4.1292028 0.096416421
-4.8342295 4.3828716 0.097294495
-4.8311176 4.6429868 0.098290719
-4.8235178 4.8928413 0.12206107
-4.8317637 5.0923414 0.074796781
-4.8305206 5.3525629 0.08973366
-4.8316593 5.623188 0.084119156
-4.8358412 5.8604503 0.061568812
-4.8386674 6.1073484 0.074072227
-4.83566 6.3593431 0.086431876
-4.8413191 6.596591 0.069909684
-4.8487539 6.6460361 0.083348565
-4.8444958 6.8689051 0.11301696
-4.8437433 7.1099029 0.12815511
-4.8425322 7.3570704 0.10378736
-4.8549609 7.5951128 0.14896227
-3.6125579 7.5319419 0.13415429
-3.559294 7.5368538 0.11152806
-1.3187301 7.5434542 0.073283225
-1.1929817 7.5898528 0.08804404
-4.8537555 7.6794648 0.090179659
-3.4555082 7.642694 0.073655359
-1.1307273 7.6466694 0.12804753
17.006945 7.6442256 0.12761953
-4.8636513 7.8853931 0.12185453
-3.4529138 7.9095831 0.11371525
-1.0279075 7.905014 0.12393674
16.974379 7.9234209 0.12118772
-4.8672352 8.1384592 0.12426868
-3.4140387 8.1567287 0.091428049
-3.2941403 8.1799145 0.1408086
-3.1079769 8.1670952 0.12845716
-2.8428707 8.1675653 0.11469105
-2.5676341 8.1617079 0.11425444
-2.3755651 8.1821079 0.1142758
-2.1715455 8.1643467 0.1139829
-1.882489 8.1658621 0.11422502
-1.0291079 8.0573006 0.023313526
-4.8681793 8.3881435 0.15824673
-1.6524471 8.2391405 0.13245295
-1.5310088 8.2901831 0.13809289
-0.95216721 8.2955942 0.11039128
16.976107 8.2220421 0.11496145
-4.8782239 8.4236698 0.095481753
-3.5443501 8.452013 0.16088516
16.96892 8.5204039 0.1086226
-4.8849478 8.6952095 0.12990856
-0.92028958 8.6078396 0.098704621
-4.8853054 8.9786987 0.13271795
-0.86609393 8.9268713 0.16542122
-0.90168667 9.090374 0.026032429
-4.8951612 9.2789431 0.12468031
-0.84266776 9.4415102 0.18904275
-4.9049187 9.6883621 0.17497386
-0.88266152 9.6323299 0.027224852
-0.84689832 10.240939 0.17445406
-0.8935523 10.400588 0.028712537
-0.92274165 11.174683 0.00095941871
-0.9270938 11.40991 0.030572463
-4.8457456 -18.668072 0.25403556
-4.847209 -17.710304 0.23924252
-4.8423367 -16.969652 0.23307082
-4.8517432 -16.702347 0.21845329
-4.8395309 -16.21554 0.22238113
-4.8532696 -15.856864 0.20450351
-4.8490992 -15.549886 0.21291643
-4.8361268 -14.875561 0.20346257
-4.8276205 -13.040847 0.3931627
-4.8234854 -12.478058 0.37490878
-4.8207998 -12.212765 0.39723408
-4.8194089 -11.955729 0.35799104
-4.8241372 -11.786135 0.38489619
-4.8231363 -11.48794 0.3428157
-4.8204618 -11.369511 0.37288976
-4.8240519 -11.044461 0.32846579
-4.8287969 -10.997282 0.36227372
-4.8246317 -10.626164 0.333325
-4.8198586 -10.24276 0.36936414
-4.8152771 -9.8836174 0.35703331
-4.8155017 -9.6072998 0.32303295
-4.8228555 -9.5164022 0.27923197
-4.8145599 -9.0899897 0.37702733
-4.8225746 -8.8726616 0.34380645
-4.8273535 -8.7561865 0.29968762
-4.8234749 -8.5323009 0.35640022
-4.8184943 -8.221096 0.37161133
-4.818305 -8.0202236 0.38965309
-4.82055 -7.9005227 0.33312446
-4.8168039 -7.6944623 0.36518455
-4.8173018 -7.5219646 0.36665902
-4.8128114 -7.3208179 0.36286277
-4.812417 -6.657342 0.39657584
-4.8108659 -6.3842545 0.37334579
-4.8157215 -6.1283793 0.38442242
-4.8127365 -5.8989716 0.35770029
-4.741087 -5.8719211 0.22431011
-4.8120313 -5.6467862 0.34496653
-4.8157854 -5.3339815 0.32931864
-4.8115172 -5.1018915 0.37715372
-4.8095222 -4.8989921 0.38906568
-4.8123798 -4.6325116 0.38945955
-4.8107243 -4.3576012 0.38552094
-4.8119698 -4.1068354 0.37387687
-4.8118777 -3.8660054 0.36294544
-4.8138008 -3.6295981 0.36770782
-4.8099852 -3.3842053 0.36651933
-4.8100595 -3.135829 0.3482706
-4.8122015 -2.8792725 0.37177956
-4.808197 -2.6271296 0.3676042
-4.806695 -2.3627191 0.37366885
-4.8092928 -2.1096101 0.38010564
-4.8085918 -1.8796271 0.38314587
-4.8092313 -1.6325231 0.38234684
-4.8079872 -1.3680539 0.3697983
-4.797215 -1.3696505 0.39870369
-4.8039331 -1.1285121 0.37630686
-4.8090601 -0.87655151 0.36574203
-4.8089046 -0.6243844 0.36709344
-4.8026361 -0.37006751 0.38611281
-4.8055067 -0.10454167 0.37993345
-4.8070498 0.15220536 0.37823141
-4.8015389 0.38885918 0.39443138
-4.8049974 0.40915099 0.37713015
-4.8029232 0.62797177 0.38382661
-4.8035226 0.85954571 0.3827278
-4.8041563 1.1161931 0.38260481
-4.7976007 1.3762017 0.38283536
-4.8025761 1.6452341 0.38494292
-4.7934732 1.8743849 0.38656372
-4.7972279 2.1142726 0.38989547
-4.8023534 2.376698 0.39566892
-4.7996659 2.3966832 0.39335829
-4.8041129 2.6480432 0.39845604
-4.7954583 2.8952701 0.37816143
-4.7930522 3.145968 0.36291161
-4.8000412 3.3814244 0.35871214
-4.8024807 3.6309085 0.3870708
-4.7996411 3.6340141 0.38522816
-4.797698 3.8690424 0.37536192
-4.8042169 4.0875902 0.35076129
-4.7939534 4.1157866 0.38848567
-4.7977505 4.3560877 0.35817426
-4.7986474 4.6140223 0.32634377
-4.794488 4.886713 0.33305657
-4.802628 5.1084785 0.33906722
-4.802608 5.3325224 0.34512949
-4.7982826 5.3693943 0.3711887
-4.7968435 5.6421781 0.3354494
-4.7954702 5.887733 0.34223318
-4.8025274 6.1111646 0.34898263
-4.8042021 6.3569746 0.33772731
-4.8057675 6.4137321 0.37664098
-4.8131514 6.6330056 0.36487684
-4.8207254 6.8754148 0.35380313
-4.8189468 7.1121159 0.36716348
-4.8115444 7.2974739 0.36675084
-4.8246026 7.5499043 0.37537032
-3.6271946 7.5644722 0.34763721
-1.1441962 7.5889225 0.32139164
-4.8209672 7.6372137 0.33468956
-1.2970809 7.6292734 0.25809345
17.03079 7.7578526 0.24254321
-4.8348017 7.8449926 0.36268491
-3.5561922 7.8428669 0.35676932
-0.98292696 7.8474183 0.34818131
-4.840497 8.0996437 0.37056825
-3.5568182 8.1520519 0.36797133
-3.3666072 8.1898823 0.36603791
-3.1083431 8.1667671 0.36809611
-2.8541398 8.1663675 0.38959658
-2.628948 8.1683207 0.28230739
-2.5813887 8.1747837 0.31806409
-2.3738749 8.1777925 0.29833186
-2.1521697 8.1586075 0.3757014
-1.8808019 8.1543159 0.34855479
-1.630134 8.1592112 0.36429173
-0.91465139 8.1223412 0.35968733
17.011072 8.0302544 0.24155897
-4.8500309 8.3836107 0.35568061
-3.5671542 8.2197742 0.33115229
16.993467 8.3071365 0.2406266
-0.87306994 8.4079494 0.38742748
-4.8540382 8.6448154 0.36309788
-0.84083211 8.6425209 0.36630368
17.030355 8.6170502 0.2404737
-4.8642087 8.9456739 0.35447145
-0.84041405 8.8157196 0.32920775
-4.8670778 9.2456112 0.36296949
-0.81113917 9.2902164 0.34576389
-4.8845744 9.6493149 0.35704964
-0.80898631 9.7679567 0.33205327
-0.80599505 9.9519262 0.36899304
-0.83593482 10.106988 0.20141196
-0.85824406 11.031491 0.21857363
-4.8235149 -18.575306 0.58041745
-4.8147898 -17.68833 0.56008798
-4.8291774 -17.540993 0.53998321
-4.8208456 -16.900278 0.5362857
-4.8293853 -16.608858 0.50949311
-4.8139167 -16.13829 0.51335275
-4.8307271 -15.767912 0.4820064
-4.8301191 -15.493299 0.4940483
-4.8166227 -14.888029 0.46477002
-4.8221869 -14.252153 0.44487661
-4.823997 -13.687824 0.44041228
-4.8142371 -13.599559 0.41141954
-4.8123522 -13.141762 0.42432165
-4.8268299 -12.684984 0.41099855
-4.8123455 -12.438283 0.59928858
-4.8067479 -11.913981 0.57403046
-4.821547 -11.474331 0.55291533
-4.8075495 -11.340322 0.58985311
-4.8141031 -10.965865 0.5736286
-4.813561 -10.597836 0.55770332
-4.8148103 -9.4928102 0.45855275
-4.8158593 -9.3037024 0.40851042
-4.8015103 -8.8232822 0.59716874
-4.8058848 -8.7214642 0.4783771
-4.814074 -8.279438 0.4016709
-4.8104129 -7.6645837 0.57798511
-4.8144064 -7.069026 0.41530606
-4.8112459 -6.8554521 0.4054516
-4.8053818 -6.105782 0.59440082
-4.809288 -5.8248682 0.41293475
-4.7286811 -5.8565054 0.4357923
-4.8091431 -5.6181192 0.51156527
-4.8087988 -5.3792391 0.49775881
-4.8049707 -5.1305718 0.40853605
-4.8090615 -4.9131408 0.40012029
-4.8115392 -4.6138182 0.4070923
-4.7965851 -3.5995967 0.59030038
-4.7985172 -1.5981206 0.40417212
-4.7980337 -0.88730621 0.59871346
-4.8018551 -0.12696473 0.40585512
-4.8004727 0.092823081 0.40027943
-4.7927418 1.8688903 0.59637642
-4.7982402 2.6364284 0.40007898
-4.7995076 2.8513746 0.4025594
-4.8007765 3.116791 0.40891138
-4.796772 3.3886471 0.41563839
-4.7924185 4.3455925 0.56863624
-4.7882886 4.6091185 0.49199766
-4.7881136 4.8825903 0.50302726
-4.7933426 5.1512942 0.44377232
-4.784862 5.6343293 0.56740022
-4.7880163 5.8885756 0.58127654
-4.791635 6.1586828 0.59620392
-4.8117061 6.4196148 0.59872502
-4.8094501 6.8586059 0.41631743
-4.8132792 7.4089489 0.40852645
-3.6686559 7.5686579 0.42662039
-1.1240876 7.5807781 0.58112234
-4.8138318 7.6273618 0.57913613
-0.98035055 7.756403 0.52741176
-4.8301229 7.8751292 0.50792438
-4.0822349 7.9248238 0.59642029
-3.5577304 7.9416132 0.40070108
-2.5426877 7.9336653 0.43605036
-2.3475761 7.9294348 0.43290985
17.091074 7.9871039 0.44065455
-4.826335 8.1055727 0.51724535
-1.3943447 8.1929016 0.55864149
17.122227 8.0891857 0.54479057
-4.829587 8.3415241 0.46433088
-3.6186962 8.3072901 0.49577346
-3.4623611 8.2560415 0.59756154
-3.3733332 8.2173386 0.40701288
-1.4683332 8.2741852 0.42216691
17.09066 8.3239946 0.49093461
-4.5863862 8.4911003 0.50485349
17.067205 8.5791883 0.43187845
-4.8330307 8.6108685 0.41040665
-4.360281 8.6146088 0.48211825
-0.82336569 8.7375803 0.47699988
17.110231 8.66329 0.54756188
-0.79227012 9.1955547 0.57948232
-0.79300362 9.5607491 0.48734087
-0.82547688 10.844895 0.49294114
-4.8267455 -15.739644 0.75961393
-4.8251481 -15.473056 0.77520037
-4.8194256 -14.885136 0.73325586
-4.8157663 -14.225546 0.70214856
-4.8172565 -13.666326 0.69319493
-4.8089819 -13.572349 0.65414631
-4.8218718 -13.08641 0.64878011
-4.818274 -12.661433 0.64823848
-4.8074689 -12.180389 0.62678432
-4.8149786 -11.924027 0.79236859
-4.8155174 -11.764299 0.60852605
-4.8275404 -11.478759 0.76408619
-4.8147984 -11.009304 0.63246065
-4.8230572 -10.978028 0.78715396
-4.8254948 -10.616955 0.61065114
-4.8111019 -10.242859 0.6433869
-4.8132973 -10.195548 0.68282408
-4.8097167 -9.8638077 0.64288008
-4.8094244 -9.5331764 0.6243279
-4.8151507 -9.2974386 0.69071686
-4.8018608 -9.1330929 0.61634982
-4.8017092 -8.9881763 0.67309678
-4.8117452 -8.7269249 0.65886605
-4.815609 -8.5094891 0.65431809
-4.8093615 -8.2312632 0.67746699
-4.8114371 -8.0887518 0.60507804
-4.8097663 -7.9601407 0.61703295
-4.8132162 -7.7293401 0.60478747
-4.8067665 -7.3622541 0.63697541
-4.8098722 -7.0572753 0.6416111
-4.810482 -6.8641648 0.63737392
-4.7967372 -6.8150148 0.616822
-4.8063412 -6.6427488 0.64916825
-4.8027153 -6.4218411 0.65663296
-4.8111773 -6.3839951 0.61006927
-4.8000541 -6.1395597 0.63438392
-4.801085 -5.8730459 0.60947847
-4.7192349 -5.8440595 0.64751679
-4.8071513 -5.5983062 0.6370222
-4.8014112 -5.3548894 0.6226263
-4.8084383 -5.1301131 0.67753249
-4.7992029 -5.1686292 0.64418125
-4.8023005 -4.8865938 0.65913099
-4.8046246 -4.6232491 0.64682233
-4.7997222 -4.5948906 0.63160706
-4.8025289 -4.3460274 0.62087923
-4.8065624 -4.0948863 0.61698151
-4.7979188 -4.0803838 0.62165904
-4.8021741 -3.8530164 0.61424351
-4.7950411 -3.6464679 0.62741351
-4.8028975 -3.3687472 0.62503731
-4.8012047 -3.1357379 0.62092102
-4.8040104 -2.8925271 0.6464836
-4.7985754 -2.8719132 0.63101369
-4.8019986 -2.6114886 0.6227414
-4.7974353 -2.6125858 0.65652239
-4.7967792 -2.3538835 0.62350595
-4.8028421 -2.1137426 0.62310505
-4.8054147 -1.8478057 0.64578384
-4.7997427 -1.8765168 0.62498671
-4.7962346 -1.620823 0.64038628
-4.7944508 -1.5952786 0.61452591
-4.7969017 -1.3813267 0.61676121
-4.8012066 -1.1448665 0.60157299
-4.7936664 -1.137261 0.61105204
-4.7942533 -0.87856042 0.64599931
-4.7989635 -0.62548184 0.62058312
-4.7969208 -0.3604255 0.6479249
-4.7942514 -0.11159162 0.64215899
-4.798131 0.12621449 0.63904107
-4.7920003 0.39400402 0.6402759
-4.7958498 0.4100967 0.63095611
-4.7923927 0.63033074 0.63443446
-4.7938795 0.86159593 0.63504881
-4.7951603 1.1178236 0.63703644
-4.797153 1.3682389 0.63627172
-4.7943029 1.6257451 0.63391328
-4.7930446 1.885694 0.65243131
-4.7913361 2.1088219 0.61768293
-4.7947788 2.3862953 0.6169253
-4.7954025 2.6421175 0.6260345
-4.7880116 2.8774331 0.6175769
-4.7945995 3.1225147 0.62130064
-4.7943268 3.3693173 0.63209176
-4.7924337 3.6126151 0.64347732
-4.7957029 3.8641255 0.6457665
-4.7880626 4.1014156 0.61056507
-4.7896595 4.3595519 0.61609066
-4.7875233 4.6142468 0.63034356
-4.7886062 4.886559 0.64635569
-4.7875915 5.1712618 0.63506997
-4.7962198 5.4059854 0.64878285
-4.7857561 5.6282501 0.62924701
-4.7887282 5.8745785 0.64214754
-4.7970657 6.1383033 0.65674591
-4.8073688 6.5997119 0.60745174
-4.7915401 6.4376988 0.61185706
-4.8006492 6.6460142 0.62429965
-4.8064909 6.8726993 0.62936717
-4.8064146 7.1304598 0.64351356
-4.8114233 7.3004045 0.66337818
-4.8182516 7.4787025 0.62604046
-3.760057 7.5317068 0.61657345
-1.0813959 7.5997849 0.62097788
-4.8165402 7.7823772 0.61521757
-4.6320558 7.7291207 0.65930623
-4.3862238 7.7418818 0.65073699
-4.1371794 7.7424335 0.68891919
-3.8923435 7.6919293 0.72300017
-3.6497903 7.6043549 0.6262213
-3.5966043 7.7536197 0.62395602
-2.403162 7.6533256 0.60325885
-2.3573208 7.6881118 0.65593207
-0.97263002 7.7523289 0.69420904
-4.6296053 7.8509007 0.61174923
-4.5507789 7.8465152 0.76259893
-4.3553834 7.8494492 0.65197718
-3.6009142 7.9430099 0.7305764
-2.253293 7.8353291 0.63863313
-2.1900542 7.9573889 0.62168396
-3.5825973 8.1587181 0.69703579
-3.3418252 8.1856928 0.69056517
-3.1134849 8.1515455 0.64494181
-2.8531232 8.190176 0.64061761
-2.1037703 8.1194458 0.64405864
-1.8188246 8.1867857 0.63303477
-1.6418622 8.1858425 0.67445987
-1.5927533 8.1759634 0.60602188
-0.90356851 8.042448 0.63352239
-3.6091535 8.2727566 0.60258722
-3.4261 8.2418575 0.64760607
-1.9165409 8.2181702 0.60893202
-1.4697269 8.2633867 0.69206226
-0.85594219 8.3309183 0.67284948
17.190746 8.3447723 0.76216084
-0.83036184 8.5142899 0.65133655
-0.81992865 8.7165442 0.70185035
17.172152 8.6414433 0.75953668
17.205452 8.9689302 0.75934827
-4.120163 9.0876913 0.66638106
-0.78709775 9.4754438 0.64415509
-0.78859258 9.8568935 0.61919934
-0.84058207 10.916487 0.77675784
-3.2340322 13.723653 0.74993032
-4.8441143 -18.614058 0.90040058
-4.8274288 -18.594259 0.91914833
-4.8306308 -17.726099 0.87888998
-4.8360233 -17.547922 0.84809124
-4.8341789 -16.929501 0.84210944
-4.8340073 -16.608229 0.8020618
-4.8143482 -16.131573 0.80527419
-4.841187 -15.001858 0.99068213
-4.838048 -14.274461 0.96393085
-4.8299751 -13.689423 0.948614
-4.8225107 -13.598132 0.89982593
-4.8346691 -13.10806 0.89083153
-4.8325977 -12.686482 0.88830072
-4.8254347 -12.46113 0.8267737
-4.8249969 -12.211205 0.85981959
-4.8181396 -11.76467 0.83322686
-4.8421841 -11.503705 0.97765613
-4.8192644 -11.358105 0.80930847
-4.8314605 -11.033382 0.94031131
-4.8304691 -10.618795 0.889117
-4.8280725 -10.241727 0.91251481
-4.8234835 -9.8824863 0.88543016
-4.8290677 -9.6184254 0.90253669
-4.82125 -9.4900436 0.81941044
-4.816596 -9.296257 0.8793388
-4.8169065 -9.079587 0.87016344
-4.8154049 -8.8381462 0.85480678
-4.8134317 -8.7262392 0.83941352
-4.8287935 -8.5233326 0.91390795
-4.8170071 -8.2370701 0.88961387
-4.8226995 -8.008502 0.86515641
-4.8162904 -7.9646716 0.87284875
-4.8216515 -7.6787477 0.9276337
-4.8155966 -7.3130226 0.87935197
-4.8188715 -7.0626125 0.87012267
-4.8114367 -6.8444605 0.85101998
-4.8204136 -6.6546736 0.87026381
-4.8097806 -6.4237127 0.86214036
-4.8230715 -6.3924804 0.91099888
-4.8238568 -6.1402273 0.8964684
-4.8167944 -5.8693514 0.8712523
-4.7353144 -5.8572111 0.86281472
-4.8129845 -5.6154404 0.84820712
-4.8183665 -5.3558707 0.85589004
-4.8111601 -5.1312332 0.88933331
-4.8156357 -4.8810759 0.89837134
-4.814146 -4.6275487 0.90737689
-4.8095403 -4.5966597 0.85995579
-4.8127241 -4.3424797 0.87561703
-4.8115077 -4.10147 0.87557703
-4.8114853 -3.8543615 0.86925995
-4.8148727 -3.6257658 0.8493402
-4.812892 -3.3746617 0.88740802
-4.8189354 -3.1408408 0.89142084
-4.8153048 -2.8901014 0.8837713
-4.8145995 -2.6181157 0.8827818
-4.8132019 -2.597316 0.87814188
-4.8081322 -2.3538003 0.87330341
-4.809998 -2.1062346 0.85506845
-4.8092146 -1.864186 0.86284918
-4.8082833 -1.6083833 0.89295036
-4.8113689 -1.5976946 0.88230944
-4.8129163 -1.3808697 0.88018847
-4.8105073 -1.1395582 0.86658776
-4.8104706 -0.8810001 0.88047755
-4.8047895 -0.63088071 0.87358117
-4.8115053 -0.35201573 0.88959259
-4.8080792 -0.1079834 0.89726937
-4.8074741 0.13023868 0.8934232
-4.8012342 0.36620152 0.89227825
-4.8066425 0.41216838 0.88884032
-4.8094316 0.61849642 0.8913486
-4.8049202 0.86692882 0.89258462
-4.8075275 1.1238883 0.89701223
-4.807683 1.3670927 0.90281296
-4.8075643 1.6335062 0.87632167
-4.8050613 1.8844278 0.87109423
-4.8042603 2.1093416 0.87391365
-4.7978344 2.1432571 0.85358512
-4.8021336 2.3853917 0.85456336
-4.800015 2.6475482 0.84178483
-4.7989154 2.6459901 0.86999106
-4.8068399 2.8666852 0.86932647
-4.8054433 3.1094003 0.86736089
-4.8053417 3.3789423 0.87632579
-4.8058715 3.6238754 0.89321744
-4.8054519 3.8850243 0.8962208
-4.806643 4.1021466 0.86662757
-4.7995286 4.1286755 0.87577629
-4.8009844 4.3518534 0.81997526
-4.7948675 4.3678498 0.83894944
-4.7948747 4.6184492 0.84783602
-4.7985454 4.8952475 0.86887884
-4.8074646 5.1179433 0.88695097
-4.8041687 5.3397417 0.90433377
-4.7956543 5.6434541 0.86495876
-4.7877264 5.8824215 0.8473177
-4.8057585 6.1182303 0.86650205
-4.8043714 6.3640056 0.88023913
-4.8069 6.414094 0.82064092
-4.8141899 6.6373873 0.87038583
-4.8163519 6.8875475 0.88970029
-4.8180895 7.1471524 0.87326235
-4.8297825 7.3306136 0.89014655
-4.8282909 7.4927788 0.86276531
-3.7736437 7.5510368 0.84707904
-1.127926 7.5967598 0.84416199
-4.8326516 7.6502786 0.82714635
-3.6380482 7.625782 0.89797997
-1.0869286 7.6131663 0.89064211
-0.98459917 7.7704015 0.92877507
-4.8322225 7.8426037 0.84689867
-3.5875249 7.8879595 0.86977839
-2.5350933 7.8748856 0.83377016
-2.3691478 7.8820324 0.85949743
-0.96992433 7.823463 0.91041559
-4.8436894 8.1056194 0.86658448
-3.5689037 8.0878525 0.80103695
-3.1174622 8.1825314 0.86275363
-2.8544583 8.1914892 0.86706579
-2.3065348 8.0184631 0.89959401
-2.1216667 8.167161 0.88349259
-1.8767279 8.1982584 0.88695633
-1.5959826 8.1857042 0.89075041
-1.3930631 8.1768894 0.83977598
-0.90879309 8.0701542 0.87985528
-4.8519158 8.375864 0.92799664
-3.5060225 8.2583694 0.9380855
-3.3275089 8.2003822 0.87928534
-2.6676781 8.2020874 0.93054324
-1.7521698 8.2523899 0.87807512
-1.495512 8.2374296 0.94317555
-0.86754173 8.3726931 0.89453065
-0.8383677 8.5807953 0.8765806
17.206228 8.4242077 0.85493433
-4.858933 8.6492891 0.89672941
-0.83412194 8.771965 0.93422943
17.184708 8.7066545 0.85778886
-4.8605962 8.9180098 0.91569686
17.2125 9.020402 0.86344582
-0.81600606 9.2963409 0.90709901
-0.80431217 9.6682758 0.82208663
-0.81346083 9.9727345 0.88358206
-0.90739793 11.269635 0.9949851
-4.8766818 -17.677366 1.1650467
-4.8749266 -17.0362 1.1546255
-4.863018 -16.691284 1.1006305
-4.8549285 -16.233412 1.1046588
-4.8514829 -15.804961 1.0428764
-4.8638334 -15.565868 1.0636305
-4.8387432 -14.861389 1.0200708
-4.8586626 -13.687571 1.1523582
-4.8672776 -13.245756 1.1706166
-4.865787 -13.108675 1.105932
-4.8606653 -12.740674 1.1323667
-4.8486218 -12.509963 1.0578133
-4.8550601 -12.267633 1.0967718
-4.8447685 -11.898586 1.0392551
-4.8638525 -11.491713 1.1704462
-4.8601198 -11.064007 1.1325419
-4.8639731 -10.676807 1.1509225
-4.8595095 -10.294797 1.1161425
-4.8530331 -9.930048 1.130215
-4.8456602 -9.6415806 1.0991061
-4.8510604 -9.5370083 1.0973551
-4.8550277 -9.2823114 1.114186
-4.8643417 -9.0747738 1.1456974
-4.8622451 -8.913331 1.1217906
-4.8571196 -8.6969337 1.104136
-4.8625159 -8.5250063 1.1851922
-4.858366 -8.2934761 1.150912
-4.8553686 -8.0328913 1.1235793
-4.8536158 -7.783658 1.1370261
-4.8518295 -7.5457535 1.1117173
-4.8501453 -7.3152742 1.128288
-4.8565369 -7.1057596 1.1432106
-4.8471527 -6.8838367 1.1181825
-4.8476448 -6.6509418 1.1060688
-4.8474646 -6.3611293 1.1113901
-4.8524275 -6.1221261 1.1410635
-4.8496313 -5.9160399 1.1428454
-4.7983747 -5.8827267 1.1288743
-4.8478718 -5.6455059 1.1231756
-4.8459883 -5.3771548 1.1025417
-4.8464155 -5.1095819 1.1351502
-4.8411808 -4.912076 1.1002147
-4.8522577 -4.6414356 1.1371307
-4.8509068 -4.3802156 1.1471068
-4.8423328 -4.114048 1.1321728
-4.8426819 -3.8720794 1.1049854
-4.8419361 -3.6209955 1.1037428
-4.8483067 -3.3925757 1.1486307
-4.8472757 -3.1359887 1.1435838
-4.8463545 -2.8787067 1.1236174
-4.8426261 -2.6293831 1.1158986
-4.8405905 -2.3639097 1.1079358
-4.8439207 -2.1099813 1.125948
-4.8449669 -1.8790954 1.1238552
-4.8477087 -1.6208494 1.1380749
-4.848887 -1.3807631 1.139876
-4.8474488 -1.1430881 1.1366668
-4.8417654 -0.88218307 1.1208842
-4.8371687 -0.62614453 1.1081669
-4.839138 -0.37391815 1.0993253
-4.8388953 -0.12278064 1.1139244
-4.8419399 0.13362348 1.1160741
-4.840148 0.3692055 1.1240855
-4.8357258 0.58774567 1.1030391
-4.8422523 0.6055522 1.1396414
-4.8377886 0.85715246 1.1110697
-4.8375196 1.1149998 1.1167618
-4.8399467 1.3780639 1.1255574
-4.8356285 1.6386454 1.112928
-4.8417969 1.8854873 1.1303477
-4.8437033 2.1358204 1.135155
-4.8406172 2.3786082 1.1394106
-4.8333111 2.6252427 1.1083944
-4.8344917 2.8710365 1.1151493
-4.8336563 3.1427746 1.1130116
-4.8368487 3.3901374 1.133108
-4.8420248 3.4152813 1.1253937
-4.8288832 3.6302686 1.1161709
-4.8389683 3.8888187 1.1522012
-4.8328772 4.1309853 1.1286346
-4.8279076 4.3807421 1.0903692
-4.8297606 4.6501083 1.0987899
-4.8275857 4.9113779 1.1138701
-4.8371935 5.1244545 1.1564908
-4.8377495 5.3491468 1.1477212
-4.8268061 5.585834 1.1164986
-4.8237543 5.6050286 1.0742298
-4.8280964 5.8584657 1.0977745
-4.8356524 6.1399612 1.1020406
-4.8419523 6.3872223 1.1404126
-4.850359 6.6345239 1.1654265
-4.8513908 6.8843899 1.1169223
-4.8534985 7.1437454 1.1053593
-4.850091 7.3638182 1.1206192
-4.8623562 7.4668241 1.1423253
-3.6305561 7.5751076 1.1349151
-4.860117 7.6490192 1.1133975
-3.5926437 7.6232023 1.1492823
-1.2919132 7.6552119 1.1800027
-1.119482 7.6486011 1.1409122
-4.8602171 7.8842893 1.0963036
-3.5341103 7.8489432 1.0900738
-0.9953599 7.8758092 1.1012278
-4.8698549 8.1451406 1.1213485
-3.4985981 8.1449976 1.0870219
-3.3967104 8.1861095 1.1195836
-3.1229143 8.1697865 1.1048934
-2.8318114 8.1909275 1.095919
-2.1342049 8.1694336 1.149649
-1.8813165 8.1841516 1.1357683
-1.618996 8.1757126 1.0882959
-1.5785275 8.1933289 1.129771
-0.94103074 8.164999 1.0905279
-2.886003 8.2050953 1.0951149
-2.6005518 8.2075424 1.1586142
-2.5761964 8.2009964 1.0871243
-2.3543634 8.2351408 1.0921237
-1.9143784 8.2052135 1.127663
-1.7764064 8.2657957 1.1439269
-1.4297445 8.3231497 1.1243373
-0.92879915 8.2665377 1.1299456
-4.8808641 8.4205971 1.1481593
-0.89202809 8.4686413 1.052567
-4.8809824 8.6915207 1.0865191
-0.85690975 8.7599421 1.0453616
17.290882 8.739048 1.1331689
-4.8828864 8.974884 1.0680869
-0.86981118 8.9225159 1.105438
17.292049 9.0459909 1.1369455
-4.8960295 9.3437614 1.1552677
-4.8992085 9.6828175 1.0949667
-0.889108 9.6281309 1.189059
-0.87987512 10.298159 1.0897663
-4.8880043 -18.768604 1.2496393
-4.8748455 -17.847855 1.2051215
-4.905726 -15.966144 1.3371297
-4.9212327 -15.707014 1.3601739
-4.8899441 -15.138556 1.2698385
-4.8959785 -14.996545 1.3048651
-4.8809977 -14.378233 1.2327298
-4.8725209 -13.780814 1.2113298
-4.9166923 -13.233919 1.3568717
-4.9117126 -12.843564 1.3842907
-4.9002352 -12.631959 1.2988163
-4.9043036 -12.363233 1.3406763
-4.8753448 -12.052524 1.2429767
-4.8919015 -11.900588 1.2987523
-4.9047337 -11.181686 1.3693739
-4.9045243 -10.759188 1.322937
-4.9055514 -10.376963 1.3755233
-4.8906541 -10.030407 1.3353983
-4.9006481 -9.6755142 1.3449833
-4.909687 -9.4330044 1.3736559
-4.8908763 -9.2722445 1.3407896
-4.885828 -8.9493122 1.3011534
-4.9038639 -8.6804161 1.3554657
-4.89925 -8.5741949 1.3729421
-4.8993187 -8.316577 1.344599
-4.9125204 -8.1381512 1.368124
-4.9029884 -7.8485174 1.3546607
-4.9070268 -7.6227903 1.3778706
-4.8993611 -7.5994887 1.3516752
-4.8934541 -7.367382 1.3414494
-4.9158049 -7.1780491 1.3893328
-4.9062538 -6.5843191 1.3749888
-4.8966808 -6.3501263 1.3544894
-4.9002271 -6.1337867 1.3670621
-4.880167 -5.8716955 1.3823255
-4.9018803 -5.6327071 1.3698028
-4.9000864 -5.3732939 1.3643274
-4.9054322 -5.130187 1.3698132
-4.8996487 -4.8635511 1.3682126
-4.8877416 -4.6558886 1.3411331
-4.9142623 -4.4023414 1.3985295
-4.9014168 -4.1538277 1.3850274
-4.9011397 -3.892282 1.3665257
-4.8941379 -3.6426096 1.352598
-4.8997364 -3.3704016 1.367187
-4.8982134 -3.1141934 1.3849375
-4.8954601 -2.8808398 1.3723407
-4.8926449 -2.6439312 1.3582491
-4.8938961 -2.3832791 1.3540339
-4.8997226 -2.1197245 1.3901266
-4.8996401 -1.878696 1.378056
-4.894021 -1.625584 1.3593273
-4.8883748 -1.3731107 1.3506296
-4.887414 -1.1210365 1.3355027
-4.8828349 -0.88587558 1.3254836
-4.8781557 -0.6280551 1.3110445
-4.87291 -0.37353754 1.29967
-4.8795691 -0.11608599 1.3139076
-4.8813496 0.13891517 1.3166826
-4.8944206 0.37654892 1.3796148
-4.8827605 0.52202797 1.3163657
-4.8768229 0.69714797 1.253747
-4.867775 0.86361921 1.2901335
-4.8726406 1.123755 1.2983925
-4.8712797 1.3875954 1.3082511
-4.8722572 1.6155915 1.3195183
-4.8829107 1.8530114 1.3358655
-4.8887167 2.1193533 1.3549216
-4.8739486 2.3450439 1.3398948
-4.8854175 2.6231902 1.3515801
-4.8808088 2.888062 1.3358527
-4.8867292 3.1181078 1.3594887
-4.8895874 3.3617301 1.373423
-4.8842602 3.6031535 1.3759661
-4.8764529 3.8529596 1.3507419
-4.8866072 4.1353583 1.3631905
-4.8898721 4.374897 1.3856443
-4.8876328 4.4143977 1.3461921
-4.882947 4.6313829 1.350509
-4.8823519 4.8530393 1.3648777
-4.8940806 5.0876455 1.3970197
-4.8742843 5.423995 1.3261416
-4.8846955 5.6327438 1.3515655
-4.8837686 5.8915005 1.3608239
-4.8973837 6.1509218 1.399188
-4.8861952 6.3158951 1.3412249
-4.8940387 6.5991559 1.3735142
-4.8865948 6.8599882 1.3310491
-4.9019837 7.1038942 1.3737245
-4.8991938 7.3688478 1.3535497
-4.9055099 7.4503789 1.3639051
-3.5342269 7.5890193 1.3591712
-4.9241753 7.715929 1.3987809
-3.4445221 7.7288461 1.331668
-1.3342997 7.6342082 1.3803183
-1.1853837 7.6710639 1.3499079
-4.906352 7.9343729 1.3449246
-3.3702004 7.8770738 1.3878182
-1.449482 7.8173075 1.3515891
-1.0577285 7.9240685 1.2845203
-4.91712 8.1552067 1.3373257
-3.335741 8.1590557 1.3726456
-3.0942516 8.1806173 1.295777
-2.8531287 8.1866741 1.2989922
-2.545702 8.1841087 1.3816639
-2.1532264 8.1877899 1.3631374
-1.8517824 8.1857319 1.3164108
-1.0564977 8.1274405 1.3778782
-4.9342909 8.3756332 1.3994582
-3.4363892 8.3027782 1.2547297
-2.9210024 8.2572117 1.3334914
-2.4053476 8.239049 1.3834859
-2.0228982 8.3104105 1.3730977
-1.8591803 8.2325191 1.3536928
-1.6792934 8.2848368 1.2779243
-1.5933098 8.2668724 1.2850821
-1.0027519 8.3962402 1.3429226
-0.96594906 8.5884943 1.3229914
-4.9256034 8.6124105 1.3450227
-0.93221313 8.6283216 1.2235537
-4.9390774 8.8518934 1.3709831
-4.895854 9.0284119 1.2128139
-0.93021077 9.1799479 1.2975613
-4.9321079 9.3019381 1.3239179
-0.91991675 9.3926125 1.2828614
-4.9306893 9.7461996 1.2888039
-4.9936657 -19.148321 1.5975465
-4.9680886 -18.114626 1.5486155
-4.9672403 -17.987206 1.5023372
-4.943109 -17.220322 1.4781948
-4.9403334 -16.939764 1.4166449
-4.9200993 -16.4016 1.4139975
-4.9747982 -15.386597 1.5659906
-4.9529228 -14.559573 1.5140302
-4.9281874 -13.882836 1.4495201
-4.9303665 -13.378989 1.4335284
-4.9602232 -12.775267 1.5476668
-4.97997 -12.512755 1.5957623
-4.9482098 -12.111062 1.5131648
-4.9293017 -11.690535 1.426241
-4.940865 -11.575944 1.4960718
-4.9407554 -11.18152 1.4552214
-4.9736981 -10.901727 1.5459543
-4.9148736 -10.761508 1.4108634
-4.9651423 -10.49004 1.5948048
-4.9576416 -10.138083 1.55355
-4.9301214 -9.8976822 1.4724171
-4.9737225 -9.7581015 1.5923694
-4.945168 -9.3675041 1.5370206
-4.9364357 -9.1072998 1.4669669
-4.9114847 -8.8605833 1.4055468
-4.9579139 -8.6545324 1.5691177
-4.9403901 -8.4526539 1.4971497
-4.9483228 -8.3812141 1.5344801
-4.9160194 -8.089777 1.4089389
-4.947258 -7.9298334 1.5038437
-4.9501839 -7.4412003 1.5326639
-4.9484434 -7.1149077 1.5455835
-4.9309931 -6.8662238 1.4655482
-4.9421787 -6.1061687 1.5162117
-4.9343586 -5.8746266 1.5870894
-4.9662132 -5.6359396 1.5784718
-4.9120741 -5.5787878 1.4002448
-4.9671898 -5.3787746 1.5952966
-4.9310923 -5.0943837 1.4970317
-4.9702325 -4.8610215 1.5989273
-4.9131169 -4.4867401 1.4312842
-4.952487 -4.1203661 1.5888646
-4.963366 -3.8658304 1.5873786
-4.9605947 -3.6130462 1.5794889
-4.9102893 -3.3671517 1.42981
-4.9615331 -3.1300626 1.5840046
-4.9473228 -2.8499992 1.5563622
-4.9368896 -2.6129777 1.5169753
-4.9639878 -2.3681827 1.5780663
-4.9104848 -2.1325397 1.4109271
-4.9647722 -1.8733739 1.5921034
-4.9653869 -1.1248291 1.597403
-4.9593921 -0.89785969 1.584323
-4.9555068 -0.62967199 1.5722264
-4.94839 -0.36414528 1.5623736
-4.9582911 -0.12304492 1.5875478
-4.9490891 0.86547458 1.5638726
-4.946002 1.1334184 1.5717592
-4.9498248 1.3881671 1.5723364
-4.8988023 2.3885946 1.4071532
-4.9515166 2.8725178 1.5758077
-4.9090991 3.6823387 1.4579574
-4.9223652 3.8919747 1.5030909
-4.9467497 4.1394849 1.5780808
-4.9499712 4.6514816 1.5893259
-4.8869672 4.8432369 1.4140761
-4.9185848 5.1512833 1.4895412
-4.9482856 5.385334 1.5966467
-4.9448109 5.6439862 1.5921311
-4.9584332 5.8703728 1.5945013
-4.8960524 6.121089 1.4074962
-4.9375262 6.3595047 1.5369762
-4.9015222 6.5948644 1.4018952
-4.9552546 6.6329784 1.5913619
-4.9675426 6.9281721 1.5894406
-4.9480238 7.2883658 1.5003703
-4.9451036 7.5121522 1.5309945
-4.9479599 7.7228494 1.4937054
-3.3392217 7.6524086 1.5684484
-1.3553801 7.6472735 1.5246367
-1.1583407 7.7826757 1.4075186
-4.9536767 7.8007507 1.5192927
-3.640487 7.8185935 1.5675038
-1.5688962 7.8338289 1.496917
-1.2270228 7.864944 1.5554241
-4.9712911 8.0548697 1.5517012
-2.8078415 8.182827 1.4171907
-2.2335427 8.1577253 1.5144267
-1.9714874 8.174757 1.5775348
-1.1458629 8.0899973 1.5333247
-4.9793305 8.3063011 1.5832453
-3.0988708 8.2653217 1.5439523
-2.983891 8.2525616 1.4208481
-2.7028399 8.2710934 1.4841654
-2.335063 8.2079487 1.4974263
-1.8901618 8.2777214 1.477657
-1.7508677 8.243391 1.5396066
-1.0520238 8.2814064 1.4217957
-4.965457 8.5673304 1.5111296
-3.2692943 8.4663715 1.5389713
-3.3348968 8.6380272 1.4971323
-4.9944792 8.9076252 1.5578249
-1.0010443 8.9042606 1.4193166
-4.9617767 9.1049719 1.4481533
-4.9880805 9.3855686 1.5274606
-4.954874 9.4579458 1.4435691
-4.982368 9.8495312 1.4918613
-1.0957557 9.8923845 1.5713706
-1.0587481 10.409183 1.4662095
-4.9828014 -19.056957 1.6229322
-5.0476117 -17.290339 1.7526718
-5.0304332 -16.691616 1.7427927
-5.0119243 -16.2959 1.6550542
-5.0213885 -15.958626 1.674068
-4.984498 -15.209169 1.6034166
-5.053874 -14.884184 1.7868572
-5.0200572 -14.107511 1.7327565
-5.0176487 -13.565363 1.7088646
-4.9900861 -13.419374 1.6204743
-5.00071 -13.026837 1.6509281
-5.0182481 -12.384113 1.7345736
-5.0059085 -11.861959 1.6679569
-5.0258818 -11.733088 1.7445489
-5.0198746 -11.322573 1.6955142
-4.9754162 -11.333145 1.6001829
-5.0498357 -11.059233 1.7777213
-4.9888678 -10.888842 1.6427464
-5.0086312 -10.565177 1.7064689
-5.0421557 -10.274824 1.7819012
-4.9817286 -10.130396 1.6444757
-5.0319595 -9.9308443 1.7365772
-5.0151815 -9.5436268 1.7179111
-4.9996181 -9.2710533 1.6497723
-5.0079308 -9.1580286 1.6919522
-4.9828591 -8.8874359 1.6239443
-5.0401134 -8.6128168 1.7850816
-5.0357275 -8.4987717 1.7386614
-5.0196857 -8.2642765 1.7163513
-4.9766665 -8.1036291 1.6135639
-5.0046067 -7.961731 1.6627969
-4.9856071 -7.7212305 1.632472
-5.0268412 -7.3157864 1.7379873
-5.0118957 -7.0815382 1.7117363
-4.9815011 -7.1501455 1.6195788
-4.9940867 -6.8581142 1.6782328
-4.9775715 -6.6317501 1.6258481
-5.0101247 -6.4640942 1.7262424
-4.9726772 -6.3401823 1.616092
-5.0147057 -6.1258531 1.7334262
-4.9382167 -6.0503168 1.6364985
-5.0132632 -5.9496288 1.7077421
-4.9598956 -5.8600411 1.6126673
-5.0257564 -5.7632313 1.7389147
-5.0021324 -5.5726767 1.7002811
-4.9774432 -5.3432398 1.6179228
-5.0141306 -5.1306534 1.7425792
-4.9705982 -5.1538553 1.6194845
-5.0139694 -4.9835005 1.7180634
-4.9705396 -4.8416309 1.6052219
-4.975709 -4.6234994 1.6106265
-5.0121021 -4.365571 1.7264507
-4.9722519 -4.3635755 1.6126332
-5.0194721 -4.1003418 1.7299173
-4.9633622 -4.1172767 1.6015656
-5.0276642 -3.8919582 1.7568256
-4.9769506 -3.8834569 1.6281713
-5.0102091 -3.6535487 1.7085731
-4.9703903 -3.3608298 1.6153827
-5.0203876 -3.1397538 1.7343322
-5.0068793 -2.8573475 1.6981609
-4.9698472 -2.9128284 1.6156179
-4.9627347 -2.6255636 1.6034565
-5.023735 -2.3139474 1.7642903
-5.0147176 -2.1340215 1.7440374
-4.9764953 -2.0966752 1.6433282
-5.0159249 -1.8884603 1.7217852
-4.9792619 -1.6383264 1.6348021
-4.961513 -1.3532497 1.6104031
-4.9643769 0.16185696 1.6140794
-4.9650884 0.38137025 1.6146789
-4.9673672 0.60180336 1.6179335
-4.9682016 1.6142263 1.6112101
-4.9647551 1.8771328 1.6152653
-4.9748588 2.121242 1.6349586
-4.9670305 2.3453708 1.6391277
-5.01439 2.535486 1.7379391
-5.0119271 2.6892796 1.7519513
-4.9616833 2.6162472 1.6137502
-5.0109606 2.846689 1.7675918
-4.9611545 3.1461158 1.6045227
-4.9593296 3.3487873 1.6044408
-5.005918 3.449785 1.7080361
-4.9639139 3.5802641 1.6305771
-5.0191216 3.6905329 1.7388482
-4.9678531 4.3622379 1.637423
-4.9602137 4.4904046 1.6155903
-5.0022273 4.6999621 1.731299
-4.95257 4.8872137 1.6079113
-5.0037618 5.1221676 1.7352961
-4.949369 5.1366668 1.6009947
-5.0140634 5.3561668 1.7762496
-4.9679089 5.348763 1.6252427
-4.9539747 5.5958619 1.6074152
-5.0008297 5.7454081 1.7313792
-5.002758 5.8213696 1.7183028
-4.975667 5.9583941 1.6685027
-4.9590931 6.1185317 1.6242622
-4.9649754 6.5849628 1.6232744
-5.0004945 6.7315865 1.7240007
-5.0213933 6.8311176 1.7312788
-4.9715652 7.1404648 1.6194832
-5.0067849 7.3766208 1.6738364
-4.979578 7.3927341 1.6389238
-5.022449 7.6313214 1.7144253
-4.9987664 7.6324568 1.672519
-3.3617008 7.610271 1.60467
-3.1695013 7.6565208 1.7039684
-1.8219395 7.7862906 1.7202609
-1.7616286 7.6526074 1.7468295
-1.5309883 7.6844444 1.6848253
-5.0283804 7.8901334 1.7325838
-3.1258574 7.8680687 1.6332788
-2.9475386 7.9689336 1.7378616
-1.344907 7.8480983 1.7019001
-5.0319161 8.1330166 1.7430487
-4.9925694 8.0761585 1.6147813
-3.098892 8.1166363 1.6360261
-2.8780515 8.1350346 1.7650218
-2.6354499 8.1828032 1.758634
-2.5954177 8.1909628 1.6216474
-1.8711634 8.1307678 1.7085977
-1.29565 8.145052 1.7250578
-1.1906242 8.1559601 1.6066053
-5.0151458 8.3771687 1.6598181
-2.9131079 8.2552595 1.6950312
-2.7454998 8.2545986 1.6779672
-2.4056687 8.2502136 1.6881452
-2.1190219 8.2682371 1.655072
-5.0009017 8.5864525 1.6198745
-5.0291333 8.67869 1.7045319
-3.0514479 8.6254244 1.7109529
-1.1414121 8.6706972 1.6206337
-5.0187426 8.8731956 1.6573482
-3.1322443 8.8518209 1.682887
