# .PCD v0.7 - Point Cloud Data file format
VERSION 0.7
FIELDS x y z
SIZE 4 4 4
TYPE F F F
COUNT 1 1 1
WIDTH 1498
HEIGHT 1
VIEWPOINT 0 0 0 1 0 0 0
POINTS 1498
DATA ascii
-2.3012018 -4.886693 0.50322062
-2.3046899 -4.8941002 0.59630007
-2.303921 -4.8924675 0.68873137
-2.3100955 -4.9055791 0.78385615
-2.3157666 -4.9176221 0.87974614
-2.3264103 -4.9402242 0.97870487
-2.3405237 -4.9701943 1.0807132
-2.3554561 -5.001904 1.1849366
-2.3784416 -5.050715 1.2954923
-2.397866 -5.0919633 1.4066589
-2.4374537 -5.1760292 1.5329963
-2.3809912 -5.2497768 -0.34117022
-2.3609717 -5.2056365 -0.24150603
-2.3413095 -5.1622844 -0.14364219
-2.3252933 -5.1269703 -0.04754414
-2.3150334 -5.1043487 0.047334366
-2.3054996 -5.0833278 0.14144519
-2.2958994 -5.062161 0.23484972
-2.2908528 -5.0510335 0.32825437
-2.2826867 -5.0330286 0.42085764
-2.2870924 -5.0427423 0.51586628
-2.2864578 -5.0413432 0.61019033
-2.2923546 -5.0543451 0.70682812
-2.2912962 -5.0520115 0.80193174
-2.3029659 -5.0777416 0.90240157
-2.3136146 -5.1012206 1.0039363
-2.3211551 -5.1178465 1.105481
-2.3480952 -5.1772456 1.2183877
-2.3584151 -5.1999998 1.3249892
-2.3892419 -5.2679687 1.4456851
-2.4173603 -5.3299661 1.5681797
-2.3568785 -5.4007921 -0.34875622
-2.3338988 -5.348134 -0.24654186
-2.3142996 -5.3032222 -0.14662708
-2.3027568 -5.276772 -0.048622668
-2.2911658 -5.2502117 0.048377931
-2.2757773 -5.2149487 0.14418642
-2.2642815 -5.1886058 0.23918782
-2.2600741 -5.1789646 0.33443171
-2.2619243 -5.1832042 0.43066385
-2.2611773 -5.1814928 0.52669543
-2.2622106 -5.1838603 0.62345713
-2.2637095 -5.1872954 0.7208156
-2.2720494 -5.2064061 0.82119322
-2.2740521 -5.2109957 0.92020422
-2.2853715 -5.2369337 1.0241024
-2.3057799 -5.2836995 1.1340611
-2.3202052 -5.3167553 1.2432764
-2.347842 -5.380085 1.3621733
-2.3716466 -5.4346337 1.4819552
-2.4053054 -5.5117626 1.6113732
-2.3258407 -5.544826 -0.35587102
-2.3087263 -5.5040255 -0.25217906
-2.2952805 -5.4719706 -0.15036899
-2.2783351 -5.4315724 -0.049743488
-2.262836 -5.3946223 0.049405091
-2.2609806 -5.3901992 0.14812192
-2.2452629 -5.3527284 0.24524702
-2.2417302 -5.3443065 0.34300151
-2.2402353 -5.3407426 0.44104397
-2.2367749 -5.3324928 0.53873491
-2.2401779 -5.3406053 0.63838691
-2.2452707 -5.352747 0.73926491
-2.2508886 -5.3661399 0.84121984
-2.2596326 -5.3869858 0.94547379
-2.2708924 -5.4138293 1.052231
-2.287677 -5.4538441 1.1634326
-2.3077435 -5.5016828 1.2786649
-2.3363342 -5.5698433 1.4016074
-2.3667014 -5.6422391 1.5291723
-2.4085598 -5.7420297 1.6684425
-2.2984889 -5.7072701 -0.36414799
-2.2793908 -5.6598487 -0.25779718
-2.2599533 -5.6115842 -0.15330093
-2.2465496 -5.5783024 -0.050787576
-2.2360871 -5.5523233 0.050551053
-2.2334416 -5.5457544 0.15150255
-2.2196097 -5.5114093 0.25103602
-2.2132599 -5.4956427 0.35064524
-2.2114851 -5.4912357 0.45081165
-2.2105908 -5.4890146 0.55129492
-2.2075593 -5.4814873 0.6513834
-2.2193208 -5.5106916 0.75661379
-2.2261176 -5.5275688 0.8614428
-2.2393627 -5.5604572 0.97019488
-2.2476552 -5.5810475 1.0783682
-2.2698898 -5.6362572 1.1952922
-2.2907112 -5.6879578 1.3142028
-2.3079445 -5.7307491 1.4336383
-2.351449 -5.8387733 1.5731546
-2.3937452 -5.9437966 1.7169378
-2.2963383 -5.9461308 -0.4854089
-2.2767205 -5.8953323 -0.37402961
-2.2542849 -5.8372378 -0.26438022
-2.230607 -5.7759266 -0.15690225
-2.2199905 -5.748436 -0.052041925
-2.2103283 -5.7234168 0.05181542
-2.2003055 -5.697464 0.15477082
-2.1915624 -5.6748242 0.25702417
-2.191257 -5.6740336 0.35998932
-2.1901462 -5.6711569 0.46296155
-2.183223 -5.6532307 0.56459171
-2.1940029 -5.6811438 0.67130864
-2.1966844 -5.688087 0.77657354
-2.2038972 -5.7067642 0.88436276
-2.2113817 -5.7261448 0.99347973
-2.2278559 -5.7688026 1.108371
-2.2483203 -5.8217931 1.2276888
-2.2746682 -5.890018 1.3532276
-2.3069651 -5.9736481 1.4859905
-2.3456364 -6.0737829 1.627261
-2.3972087 -6.2073245 1.7829669
-2.2621446 -6.1166725 -0.49663684
-2.2500198 -6.0838881 -0.38390994
-2.2215722 -6.006968 -0.27059969
-2.2013783 -5.9523654 -0.16082276
-2.1893535 -5.9198503 -0.053304616
-2.1787446 -5.8911653 0.053046323
-2.1702435 -5.8681788 0.15854819
-2.1650393 -5.8541069 0.26371369
-2.1578283 -5.8346086 0.36817971
-2.1626513 -5.8476496 0.47479382
-2.1635978 -5.8502088 0.58111173
-2.1631956 -5.849122 0.68742859
-2.1716373 -5.8719478 0.79734999
-2.1810374 -5.8973651 0.90896875
-2.1957932 -5.937263 1.0245506
-2.2095649 -5.9745007 1.1416988
-2.234971 -6.0431972 1.2675021
-2.2593558 -6.1091318 1.395996
-2.2967727 -6.2103043 1.5365255
-2.3390603 -6.3246465 1.685329
-2.3936508 -6.4722557 1.8490341
-2.2110426 -6.2521167 -0.39248836
-2.1912658 -6.1961951 -0.27768257
-2.1731243 -6.144896 -0.1651673
-2.1541908 -6.0913582 -0.054565709
-2.1449769 -6.0653043 0.05433232
-2.1345842 -6.0359173 0.16223808
-2.1283858 -6.0183897 0.26971424
-2.120976 -5.9974375 0.3765004
-2.126514 -6.0130973 0.48570603
-2.1305084 -6.0243921 0.59532356
-2.1337788 -6.0336394 0.70545262
-2.1388102 -6.0478668 0.81699723
-2.1479685 -6.0737638 0.93132317
-2.1629233 -6.1160512 1.0499529
-2.181742 -6.1692643 1.1728295
-2.2078004 -6.2429495 1.3026367
-2.2288423 -6.3024483 1.4327339
-2.2709696 -6.4215713 1.5805919
-2.3230338 -6.5687919 1.7413476
-2.3943436 -6.7704334 1.9242313
-2.1796751 -6.455914 -0.40328225
-2.1588845 -6.3943353 -0.2851482
-2.1421158 -6.3446689 -0.16969542
-2.1262255 -6.2976031 -0.056134857
-2.1141181 -6.2617426 0.055815209
-2.106082 -6.2379408 0.16684087
-2.1053143 -6.2356672 0.2780726
-2.0993199 -6.2179127 0.38841498
-2.0972488 -6.2117782 0.49927849
-2.09396 -6.2020373 0.60985398
-2.1055076 -6.2362399 0.72554266
-2.1107583 -6.2517915 0.84037769
-2.1241789 -6.2915421 0.95995587
-2.1387274 -6.3346329 1.082111
-2.163965 -6.4093823 1.2124655
-2.1854744 -6.4730906 1.3439926
-2.2165203 -6.5650449 1.4850653
-2.2637451 -6.7049184 1.6421908
-2.3248751 -6.8859777 1.8164241
-2.4054406 -7.1246023 2.0148983
-2.1421149 -6.6575723 -0.41392154
-2.1269436 -6.6104207 -0.29339662
-2.1066072 -6.5472159 -0.17428847
-2.0912039 -6.4993439 -0.057660393
-2.0833123 -6.4748168 0.057442795
-2.0751665 -6.4495001 0.17168725
-2.0696871 -6.4324708 0.2854985
-2.067625 -6.4260616 0.39952782
-2.0677307 -6.4263902 0.51409668
-2.0673664 -6.4252577 0.62882936
-2.0776176 -6.4571185 0.74770391
-2.0813804 -6.4688125 0.86545682
-2.0986629 -6.5225253 0.99051428
-2.1169915 -6.5794897 1.1186477
-2.1392672 -6.6487217 1.2518207
-2.1698468 -6.7437611 1.3936
-2.210326 -6.8695683 1.546636
-2.2550633 -7.0086088 1.7084911
-2.3324742 -7.2491984 1.903235
-2.4385951 -7.5790157 2.1333203
-2.1088605 -6.8909512 -0.42651102
-2.0894337 -6.8274713 -0.30167189
-2.0766089 -6.7855654 -0.17982371
-2.0612242 -6.7352943 -0.059485845
-2.0437768 -6.6782823 0.058982316
-2.0426598 -6.674633 0.17688391
-2.0317011 -6.6388235 0.29333648
-2.0299547 -6.6331172 0.41055256
-2.0316191 -6.638556 0.52868903
-2.0392489 -6.6634874 0.64922136
-2.0417833 -6.6717687 0.76909649
-2.0565491 -6.7200174 0.89503533
-2.0680666 -6.7576518 1.0216209
-2.0892351 -6.8268232 1.1554967
-2.1146433 -6.9098473 1.2951539
-2.146337 -7.0134101 1.4428266
-2.1951396 -7.1728787 1.6076856
-2.2525325 -7.3604164 1.7862087
-2.338392 -7.6409726 1.9971009
-2.4801264 -8.1041059 2.2708964
-2.0753927 -7.1454988 -0.44038236
-2.0529196 -7.0681248 -0.31097496
-2.0347703 -7.0056372 -0.18486506
-2.0154352 -6.9390674 -0.061024528
-2.0084219 -6.9149208 0.060812175
-2.0004084 -6.8873305 0.18174317
-1.9935186 -6.8636093 0.30197695
-1.9937383 -6.8643656 0.42305592
-1.9928087 -6.861165 0.54409009
-2.003787 -6.898963 0.66930073
-2.0122037 -6.9279413 0.79522556
-2.021991 -6.9616389 0.92326748
-2.0396709 -7.0225101 1.0571401
-2.0601325 -7.0929585 1.195429
-2.0930164 -7.2061763 1.3449435
-2.1318166 -7.3397646 1.5035342
-2.1862383 -7.5271358 1.6799008
-2.2531712 -7.7575836 1.8745739
-2.3685074 -8.1546812 2.1222897
-2.6458039 -9.1094027 2.541724
-2.0287437 -7.3774948 -0.45284438
-2.005724 -7.2937837 -0.31960741
-1.9859853 -7.2220044 -0.189805
-1.9787621 -7.1957374 -0.063026235
-1.9652237 -7.1465049 0.062595017
-1.9581344 -7.1207252 0.18714324
-1.9575665 -7.1186595 0.31193361
-1.9573349 -7.1178174 0.43690491
-1.9571935 -7.1173034 0.5621227
-1.9650156 -7.1457486 0.69044316
-1.9737633 -7.1775594 0.82055116
-1.9876238 -7.227963 0.95471704
-2.0079796 -7.3019862 1.0947726
-2.0322909 -7.3903942 1.2405283
-2.069483 -7.5256429 1.3988962
-2.1158421 -7.6942272 1.5697803
-2.1764333 -7.9145656 1.7592343
-2.2572174 -8.2083349 1.9754858
-2.4153383 -8.7833395 2.2766697
-1.9913828 -7.6693296 -0.46896014
-1.9649739 -7.5676222 -0.3303405
-1.9455377 -7.4927683 -0.19616911
-1.9349332 -7.4519272 -0.065020919
-1.9265655 -7.4197016 0.064739734
-1.9243958 -7.4113455 0.19403738
-1.9149905 -7.375123 0.32193756
-1.9155819 -7.3774014 0.45110944
-1.9169767 -7.3827724 0.58086282
-1.9293206 -7.4303122 0.71519703
-1.9363232 -7.4572806 0.84927392
-1.9518684 -7.5171494 0.98912317
-1.9746661 -7.604949 1.1358413
-2.0041521 -7.7185073 1.2906569
-2.0433776 -7.869575 1.4572418
-2.0933089 -8.0618734 1.6385069
-2.1682487 -8.3504858 1.8490421
-2.2920594 -8.8273134 2.1163418
-1.9400909 -7.9370918 -0.48358554
-1.9207748 -7.8580675 -0.34178385
-1.8998522 -7.772471 -0.20275933
-1.8892955 -7.7292824 -0.067198105
-1.8754445 -7.6726174 0.066705465
-1.8717235 -7.6573939 0.19975734
-1.8692918 -7.6474457 0.33262292
-1.870525 -7.6524911 0.46624559
-1.8753721 -7.6723208 0.60147035
-1.8823339 -7.7008023 0.73856378
-1.8965734 -7.7590575 0.88046002
-1.9160348 -7.8386755 1.0277164
-1.9363713 -7.921874 1.1789155
-1.9735059 -8.0737953 1.3452054
-2.0186481 -8.2584763 1.5237497
-2.0783918 -8.5028925 1.7219179
-2.1776979 -8.9091635 1.9656463
-2.3443873 -9.5911055 2.2911806
-1.8873042 -8.2300844 -0.49973974
-1.8657986 -8.1363039 -0.35268795
-1.8468964 -8.0538759 -0.20938924
-1.8350638 -8.0022774 -0.069336057
-1.8272984 -7.9684138 0.069042645
-1.8215383 -7.9432955 0.2065143
-1.8211042 -7.9414024 0.34423944
-1.8201336 -7.9371696 0.48195359
-1.8272839 -7.9683504 0.62256336
-1.8388308 -8.0187044 0.76645011
-1.8524063 -8.0779028 0.91353881
-1.8746576 -8.1749363 1.0681756
-1.9019015 -8.2937403 1.2300785
-1.9427593 -8.4719114 1.4067599
-1.9884884 -8.6713257 1.5945086
-2.0653489 -9.0064955 1.8177294
-2.19186 -9.5581799 2.1017029
-1.820895 -8.4969101 -0.36715189
-1.7998608 -8.3987579 -0.21766357
-1.7891322 -8.3486948 -0.072108328
-1.7814635 -8.3129091 0.071799248
-1.7769239 -8.2917261 0.21488973
-1.7754798 -8.2849874 0.35799471
-1.783833 -8.323967 0.64828622
-1.7945249 -8.3738585 0.79785991
-1.81598 -8.4739742 0.95529354
-1.8408762 -8.5901489 1.1188717
-1.8699145 -8.7256517 1.2900352
-1.9143795 -8.9331398 1.4786454
-1.980886 -9.2434826 1.6943313
-2.0825076 -9.7176828 1.9550481
-2.3469357 -10.951594 2.4004617
-1.7583021 -8.8190336 -0.37994447
-1.7414901 -8.7347107 -0.22570108
-1.7268995 -8.6615295 -0.074589178
-1.7238909 -8.6464386 0.074459225
-1.7204421 -8.6291409 0.2229732
-1.7167001 -8.6103725 0.37095487
-1.722662 -8.640275 0.52143818
-1.7304848 -8.679512 0.67397869
-1.7450668 -8.7526493 0.83148599
-1.7618458 -8.8368082 0.99325204
-1.7942007 -8.9990883 1.1686715
-1.8311242 -9.1842842 1.3538277
-1.8860303 -9.4596739 1.5611708
-1.9568323 -9.8147926 1.7937347
-2.1016972 -10.541384 2.1144953
-1.6913474 -9.1654186 -0.39378422
-1.6759175 -9.0818052 -0.23402601
-1.6662753 -9.0295534 -0.077545106
-1.6573513 -8.9811935 0.077129796
-1.6560739 -8.9742718 0.23125504
-1.6584443 -8.9871178 0.38612366
-1.6637316 -9.015769 0.54260641
-1.6719866 -9.060503 0.70163298
-1.6894549 -9.1551638 0.86733806
-1.7104211 -9.2687798 1.0389472
-1.7382265 -9.4194574 1.2199069
-1.7842479 -9.6688471 1.4213455
-1.8500631 -10.0255 1.6500124
-1.9536575 -10.586879 1.9295317
-1.6279694 -9.5890465 -0.41094181
-1.6147003 -9.51089 -0.24446236
-1.6028969 -9.4413652 -0.080876395
-1.593765 -9.3875771 0.080415636
-1.5931551 -9.3839846 0.24120046
-1.5963315 -9.4026937 0.40295556
-1.601745 -9.4345798 0.56637436
-1.6194403 -9.5388088 0.73680192
-1.6348561 -9.629611 0.90997589
-1.6582861 -9.7676182 1.0920901
-1.7005795 -10.016734 1.2939749
-1.7530013 -10.325508 1.5140328
-1.8399622 -10.837725 1.7791728
-2.0247803 -11.926337 2.168153
-1.559902 -10.058464 -0.43005791
-1.544912 -9.9618053 -0.25545788
-1.5338839 -9.8906956 -0.084528707
-1.5279679 -9.8525486 0.084202692
-1.5278713 -9.8519249 0.25264016
-1.533353 -9.8872719 0.42273846
-1.5400994 -9.9307737 0.59477746
-1.5539809 -10.020284 0.7721951
-1.5755801 -10.159558 0.95782548
-1.6035624 -10.339992 1.1534013
-1.6512021 -10.64718 1.3722229
-1.7177945 -11.076576 1.6203909
-1.8376938 -11.849704 1.9407872
-1.47342 -10.49009 -0.4475649
-1.4573835 -10.375917 -0.26551515
-1.4507636 -10.328786 -0.088086262
-1.4447314 -10.28584 0.087720007
-1.4460962 -10.295557 0.26345873
-1.450274 -10.325301 0.44053411
-1.4604893 -10.398029 0.62144679
-1.4776223 -10.520008 0.80899268
-1.5025638 -10.697581 1.0064186
-1.5404283 -10.967159 1.2207757
-1.5917207 -11.332338 1.4574416
-1.6819898 -11.975014 1.7481222
-1.9411612 -13.820198 2.2587397
-1.3878216 -11.023931 -0.46944585
-1.3752747 -10.924267 -0.27901483
-1.3652332 -10.844503 -0.092308313
-1.361757 -10.816891 0.092073277
-1.3629398 -10.826287 0.27651235
-1.371039 -10.890621 0.46376899
-1.3815991 -10.974504 0.65465128
-1.4001491 -11.121852 0.8536461
-1.4275 -11.339109 1.0647416
-1.4731258 -11.70153 1.3000398
-1.5393645 -12.227687 1.569597
-1.6700703 -13.265927 1.9328831
-1.2918285 -11.598641 -0.4930816
-1.2793796 -11.48687 -0.29288647
-1.2717104 -11.418013 -0.097025141
-1.2699202 -11.40194 0.096888557
-1.271859 -11.419348 0.29116482
-1.2793684 -11.48677 0.48832569
-1.2948467 -11.62574 0.69232243
-1.3172946 -11.827289 0.90625107
-1.3528458 -12.146483 1.1386192
-1.4059179 -12.622991 1.4000348
-1.5026867 -13.491826 1.7289292
-1.1746807 -12.121406 -0.30860525
-1.1678849 -12.051281 -0.10225385
-1.1660507 -12.032354 0.10209325
-1.1693763 -12.066669 0.30721167
-1.1795878 -12.172042 0.51668727
-1.1973325 -12.355146 0.73466337
-1.2229125 -12.619104 0.96548289
-1.2641757 -13.044895 1.2210156
-1.3324773 -13.749693 1.5227277
-1.4921091 -15.396916 1.9701209
-1.0614086 -12.868408 -0.32720324
-1.0578462 -12.825216 -0.108681
-1.0562693 -12.806098 0.10851899
-1.0632573 -12.890821 0.32777315
-1.074706 -13.029623 0.55238092
-1.092934 -13.250618 0.78689915
-1.1248704 -13.637812 1.0420852
-1.1761694 -14.259755 1.3330153
-1.2886173 -15.623061 1.7279767
-0.9282853 -13.633633 -0.34628719
-0.92511016 -13.587 -0.11501236
-0.92581296 -13.597322 0.11509974
-0.93409288 -13.718927 0.34845364
-0.94565827 -13.888787 0.58817047
-0.96807891 -14.218078 0.84344327
-1.0087746 -14.815771 1.1308757
-1.0755726 -15.796826 1.475112
-0.78293967 -14.573891 -0.36984673
-0.78122574 -14.541986 -0.12298897
-0.78308284 -14.576555 0.12328133
-0.79111642 -14.726095 0.37370926
-0.80832559 -15.046432 0.63663989
-0.83393323 -15.523101 0.92005742
-0.87880164 -16.358295 1.2475274
-0.9894591 -18.41811 1.7183896
-0.61254311 -15.555333 -0.39449021
-0.61143553 -15.527206 -0.13123401
-0.61505926 -15.619228 0.13201177
-0.62352812 -15.834293 0.40156478
-0.64011955 -16.255627 0.68734491
-0.6686337 -16.979734 1.005722
-0.72253841 -18.348627 1.3983834
-0.42007124 -16.768805 -0.42506841
-0.42021111 -16.774387 -0.14170969
-0.42400703 -16.925917 0.1429898
-0.4323363 -17.258413 0.43747935
-0.44750586 -17.863966 0.75500292
-0.47662506 -19.026375 1.1264266
-0.1949732 -18.165012 -0.46034262
-0.19532531 -18.197817 -0.15369542
-0.19805875 -18.452482 0.15584628
-0.2038372 -18.990841 0.481271
-0.21421468 -19.957678 0.84327561
-0.44742459 8.3285055 0.91937417
-0.42061475 7.8294582 0.99858916
-0.41221669 7.6731339 1.1108414
-0.40938798 7.6204796 1.2351444
-0.40971473 7.6265616 1.3688853
-0.41589728 7.7416453 1.5251184
-0.53594911 7.8714309 0.60081983
-0.51733142 7.5979943 0.70950276
-0.50833702 7.4658942 0.82487023
-0.5034095 7.3935246 0.94381142
-0.50217336 7.3753695 1.068665
-0.50116146 7.360507 1.1940479
-0.50089377 7.356576 1.3215772
-0.50099277 7.3580303 1.4508095
-0.62216407 9.13766 1.9629378
-0.50805813 7.4617982 1.7355505
-0.65669423 7.9616928 0.3375299
-0.62731963 7.6055574 0.45166248
-0.61423266 7.4468927 0.56902802
-0.60767174 7.3673491 0.68870676
-0.60535306 7.3392377 0.81175071
-0.60596961 7.3467126 0.93884671
-0.60651928 7.3533764 1.066627
-0.60762304 7.3667583 1.1963503
-0.60783792 7.3693633 1.3253016
-0.60685879 7.3574929 1.4522675
-0.60533297 7.3389935 1.5782508
-0.60388231 7.3214064 1.7047323
-0.60500735 7.3350458 1.8394419
-0.61940545 7.5096073 2.0190232
-0.79136324 8.1659937 0.069287591
-0.74567342 7.6945252 0.19589895
-0.725743 7.4888654 0.31789255
-0.71370167 7.3646121 0.4379155
-0.70925498 7.318727 0.55995303
-0.71109092 7.3376718 0.68681359
-0.71696872 7.3983245 0.81933707
-0.72731787 7.5051165 0.96032131
-0.74249917 7.6617703 1.112788
-0.84371382 8.706193 1.4156888
-0.75249249 7.7648902 1.3982267
-0.73455876 7.5798345 1.4980766
-0.72324139 7.4630508 1.6069908
-0.71567708 7.3849964 1.7217476
-0.70981282 7.3244829 1.8391525
-0.70710111 7.2965016 1.9642478
-0.89699405 8.0536337 -0.068436153
-0.85105664 7.6411858 0.064931363
-0.82760686 7.4306426 0.18946281
-0.81458288 7.3137074 0.31092042
-0.81337112 7.3028274 0.43488941
-0.81975681 7.3601613 0.56396312
-0.83718461 7.5166364 0.70461428
-0.89063382 7.9965281 0.88690692
-1.1665512 10.473844 1.3421855
-0.8848139 7.9442744 1.1555396
-0.89031023 7.9936233 1.3017585
-0.8805846 7.9063015 1.4258144
-0.88808787 7.9736695 1.5782646
-0.95436239 8.5687132 1.847821
-0.85421067 7.6695042 1.7907453
-0.82830846 7.4369421 1.870176
-0.81507951 7.3181663 1.9730186
-1.0153638 8.0653744 -0.20599635
-0.96011013 7.6264758 -0.064916492
-0.93416452 7.4203806 0.063162215
-0.92028391 7.310123 0.1867066
-0.91713971 7.2851472 0.31023255
-0.92491406 7.3469019 0.43825755
-1.0091896 8.0163298 0.61528504
-0.99314976 7.8889203 0.74076909
-1.0020888 7.9599261 0.88434762
-1.3331544 10.589691 1.3593371
-0.99824774 7.9294152 1.1553383
-1.00517 7.9844007 1.3024663
-0.99371797 7.8934336 1.4259127
-1.0026615 7.9644752 1.5791237
-0.98778337 7.8462934 1.6949084
-0.99484879 7.9024162 1.8482633
-0.98578888 7.8304505 1.9724782
-0.93695098 7.4425149 2.0099535
-1.1450789 8.1524487 -0.34782827
-1.0781171 7.6757112 -0.19641805
-1.0465107 7.4506874 -0.063541174
-1.0277004 7.3167667 0.062399071
-1.0223714 7.2788262 0.18626194
-1.0283282 7.3212357 0.31236413
-1.107724 7.886498 0.47134307
-1.1175114 7.9561801 0.61183333
-1.1068747 7.8804517 0.7413857
-1.1115007 7.9133873 0.88085443
-1.1006079 7.8358345 1.0077595
-1.1106279 7.9071727 1.1542954
-1.099391 7.8271713 1.279254
-1.1092559 7.8974051 1.4293519
-1.0962826 7.8050404 1.5504647
-1.1059076 7.8735662 1.7040445
-1.1133423 7.9264984 1.8574326
-1.219601 8.683012 2.1914101
-1.0972708 7.812077 2.1137838
-1.2107564 7.8071246 -0.33380005
-1.1633576 7.5014901 -0.19236621
-1.1366421 7.3292255 -0.062637657
-1.1258657 7.259738 0.06204379
-1.1329713 7.3055553 0.18734172
-1.1821414 7.6226115 0.32591105
-1.7257943 11.12816 0.66649175
-1.2259462 7.9050708 0.60918999
-1.2152954 7.8363929 0.73880148
-1.2217425 7.877965 0.87876803
-1.2119952 7.8151126 1.0072223
-1.2232612 7.8877578 1.1538991
-1.2137477 7.8264136 1.2818382
-1.2232926 7.8879595 1.4306649
-1.2137231 7.8262539 1.5579703
-1.2236662 7.8903685 1.7112963
-1.2054937 7.77319 1.8253639
-1.2140032 7.8280602 1.9798207
-1.2155776 7.8382125 2.1253457
-1.3705993 8.0730886 -0.48464164
-1.2855576 7.5721774 -0.32450819
-1.2498434 7.3618135 -0.18922375
-1.2361045 7.280889 -0.062369373
-1.2312527 7.2523103 0.062124565
-1.2485994 7.3544865 0.18903542
-1.347489 7.936965 0.34014127
-1.3529974 7.9694099 0.47841763
-1.3331131 7.8522878 0.60653073
-1.3405764 7.8962479 0.74617708
-1.3304294 7.8364806 0.87617499
-1.3248857 7.8038268 1.0081086
-1.333356 7.8537188 1.1515934
-1.3290634 7.8284345 1.2851533
-1.3246129 7.8022194 1.4184074
-1.3316883 7.843895 1.5651163
-1.3200215 7.7751756 1.6902376
-1.3243639 7.8007541 1.8361
-1.3319178 7.8452468 1.9887854
-1.3412733 7.900353 2.1471808
-1.4404948 7.8060479 -0.46980035
-1.3771183 7.4626107 -0.32062456
-1.3457583 7.2926702 -0.1879224
-1.3321031 7.2186728 -0.061993401
-1.343876 7.2824702 0.062541291
-2.0691607 11.212791 0.2889387
-1.451515 7.865766 0.33794579
-1.4541472 7.8800302 0.47425294
-1.4408674 7.8080673 0.60464615
-1.4506601 7.8611336 0.74474472
-1.4405833 7.8065281 0.8750419
-1.4506005 7.8608103 1.0180478
-1.4472535 7.8426733 1.1528932
-1.4450115 7.8305235 1.2887597
-1.4394192 7.8002191 1.4216437
-1.4314896 7.7572484 1.5517569
-1.4390947 7.7984605 1.6996032
-1.444267 7.8264894 1.8468341
-1.4231744 7.7121887 1.960018
-1.4323168 7.7617316 2.1148612
-1.5214158 7.6308947 -0.46052235
-1.4683721 7.3648458 -0.31729469
-1.4459569 7.2524185 -0.1873993
-1.437162 7.2083068 -0.06207468
-1.4572356 7.3089886 0.062941708
-1.5847342 7.9484777 0.20538515
-1.5863225 7.9564443 0.34278211
-1.5620461 7.8346815 0.47282085
-1.5723828 7.8865271 0.61240202
-1.5557657 7.8031816 0.74128824
-1.5626817 7.8378701 0.88097197
-1.5586088 7.8174415 1.0152164
-1.5590752 7.8197808 1.1526904
-1.5617577 7.8332348 1.2927526
-1.5573376 7.8110662 1.4275371
-1.5544409 7.7965364 1.5639066
-1.5442526 7.7454357 1.6926908
-1.5475999 7.7622252 1.8367085
-1.5505828 7.7771859 1.9819744
-1.5541556 7.7951055 2.1297979
-1.6144356 7.5335011 -0.45599255
-1.568261 7.3180346 -0.31621262
-1.5442646 7.2060595 -0.18675342
-1.540346 7.1877737 -0.062081367
-1.5870672 7.4057908 0.063964397
-1.6858699 7.866838 0.20387825
-1.6885999 7.8795767 0.3404769
-1.665881 7.7735629 0.47052315
-1.6708351 7.79668 0.60722017
-1.6803577 7.8411155 0.74710023
-1.6694554 7.7902417 0.87821454
-1.670521 7.7952147 1.015331
-1.6441771 7.6722851 1.1343013
-1.6290661 7.6017718 1.2582725
-1.6563218 7.7289557 1.4167184
-1.6596967 7.7447042 1.5581151
-1.6677145 7.7821183 1.7057495
-1.6712942 7.7988224 1.8508391
-1.6749072 7.8156819 1.9976898
-1.6745055 7.8138075 2.141237
-1.7152855 7.4799528 -0.45419088
-1.6710551 7.2870741 -0.31587598
-1.6493057 7.1922297 -0.18698767
-1.6476051 7.184814 -0.06225311
-2.3939652 10.439513 0.09045358
-1.7881062 7.7975059 0.20272398
-1.7935096 7.8210692 0.33902332
-1.7932386 7.8198872 0.47483209
-1.7964963 7.8340931 0.6120739
-1.7807199 7.765296 0.74222863
-1.7891605 7.8021035 0.88234836
-1.7542368 7.6498098 0.99956006
-1.709478 7.454627 1.1056262
-1.6944433 7.3890648 1.2269533
-1.7094716 7.4545994 1.3707734
-1.7719111 7.7268829 1.5594726
-1.7742972 7.7372885 1.7013156
-1.7711371 7.7235079 1.8387933
-1.7734601 7.7336378 1.9830045
-1.7722811 7.7284966 2.1245928
-1.8154755 7.427278 -0.45252398
-1.7711772 7.2460499 -0.31516433
-1.752139 7.1681628 -0.18699482
-1.7560611 7.1842089 -0.062459257
-1.9280814 7.8879595 0.06857764
-1.9220662 7.8633509 0.2051301
-1.8945384 7.7507319 0.33711532
-1.8934922 7.7464519 0.47197038
-1.8954306 7.7543821 0.60790354
-1.8999649 7.7729325 0.74548161
-1.9020058 7.7812819 0.88298196
-1.8449582 7.547895 0.98959261
-1.7904823 7.3250289 1.0900943
-1.7597886 7.1994581 1.1995288
-1.7854687 7.3045177 1.3477373
-1.8738971 7.6662865 1.5524969
-1.8848498 7.7110949 1.701314
-1.8816111 7.6978455 1.8389072
-1.8690985 7.6466556 1.9673593
-1.8984003 7.7665315 2.1422992
-1.9274369 7.4230576 -0.4539012
-1.8745009 7.2191868 -0.31513065
-1.8580207 7.1557174 -0.18734474
-1.8609006 7.1668091 -0.062533148
-2.0278897 7.809927 0.068144605
-2.0267117 7.8053904 0.20435391
-2.0257211 7.8015747 0.34055296
-2.0218096 7.7865105 0.47612545
-2.0193088 7.7768803 0.61187047
-2.0181918 7.7725782 0.74814147
-2.0139663 7.7563047 0.88332832
-1.9508872 7.513371 0.98862594
-1.894304 7.295454 1.0896164
-1.8545886 7.1424999 1.1943394
-1.8855014 7.2615528 1.3446518
-1.9937694 7.6785212 1.5605938
-1.9917309 7.6706705 1.698511
-2.0060472 7.7258058 1.8522561
-1.9984344 7.6964869 1.9873362
-1.9890476 7.6603365 2.1206427
-2.0467162 7.4428511 -0.45685607
-1.9851261 7.2188802 -0.31632519
-1.9581981 7.1209564 -0.18714932
-1.9608675 7.1306639 -0.062456265
-2.1320007 7.7529869 0.067907088
-2.1300313 7.7458258 0.20357181
-2.1230042 7.7202711 0.33829573
-2.122956 7.7200966 0.47387394
-2.1216183 7.7152314 0.60934693
-2.1182842 7.7031078 0.74429685
-2.1333888 7.7580347 0.88691211
-2.0961678 7.6226816 1.0068541
-2.0351689 7.4008594 1.1095965
-2.0065682 7.2968535 1.2248269
-2.0355101 7.4021006 1.3759317
-2.1115894 7.678762 1.5666252
-2.1145504 7.6895289 1.7092136
-2.1056261 7.6570764 1.8428153
-2.1225216 7.7185163 2.0006642
-2.1154058 7.6926398 2.1377485
-2.1658881 7.4570713 -0.45958477
-2.0891526 7.1928735 -0.3164635
-2.0698025 7.1262517 -0.18804784
-2.0628915 7.102458 -0.06246144
-2.1497648 7.4015594 0.065091833
-2.273572 7.8278227 0.20656092
-2.2670772 7.8054619 0.34341544
-2.2574873 7.7724442 0.47902143
-2.2438152 7.7253709 0.61262155
-2.238647 7.7075772 0.7477482
-2.2331817 7.6887603 0.88255638
-2.2389238 7.7085299 1.0223217
-2.2212114 7.6475477 1.1512307
-2.2064795 7.5968256 1.2803494
-2.2391181 7.7091994 1.4388266
-2.2365317 7.700295 1.5773879
-2.2195997 7.6419978 1.7055357
-2.2316597 7.6835198 1.8566768
-2.2168546 7.6325464 1.9864018
-2.2478302 7.7391949 2.1594057
-2.2877405 7.4754629 -0.46268901
-2.2106972 7.2237148 -0.31917989
-2.1708121 7.0933857 -0.18798123
-2.1671867 7.0815392 -0.062543869
-2.2123365 7.2290716 0.063846864
-2.3754833 7.7621727 0.2057047
-2.3643882 7.7259188 0.34136981
-2.3573103 7.7027903 0.47675928
-2.3511152 7.6825476 0.61183167
-2.3456256 7.6646094 0.74676031
-2.3550224 7.6953144 0.88708711
-2.3417096 7.6518135 1.0191407
-2.3415606 7.6513262 1.1567264
-2.3403931 7.647511 1.2944051
-2.3361311 7.6335845 1.4308083
-2.3358567 7.6326876 1.5702269
-2.3437312 7.6584191 1.7165116
-2.3281658 7.6075568 1.8461843
-2.3429925 7.6560054 2.0010302
-2.3293347 7.6113772 2.1328263
-2.4448426 7.598433 -0.47241771
-2.3404517 7.2739916 -0.32284853
-2.2871709 7.1083975 -0.18922725
-2.2727656 7.0636272 -0.062666565
-2.294764 7.1319971 0.063273124
-2.4719529 7.6826901 0.20451505
-2.5093389 7.798883 0.34614527
-2.4998713 7.7694583 0.48305088
-2.4818542 7.7134628 0.61705959
-2.4672916 7.6682029 0.75047433
-2.4538107 7.6263046 0.8830902
-2.464087 7.6582432 1.0245897
-2.469867 7.6762075 1.1657131
-2.4518538 7.6202226 1.2955936
-2.4520545 7.6208467 1.4348522
-2.4568727 7.6358218 1.5779445
-2.4679723 7.6703181 1.7269193
-2.4482601 7.6090541 1.8548617
-2.4776485 7.7003913 2.021693
-2.4625587 7.6534939 2.1542842
-2.4809537 7.3482623 -0.3276875
-2.4111788 7.1415977 -0.19101021
-2.3821795 7.055706 -0.062892348
-2.3807228 7.0513916 0.062853888
-2.4429445 7.2356839 0.19352664
-2.6114051 7.734642 0.34491768
-2.6035995 7.7115231 0.48171651
-2.583797 7.6528707 0.61510789
-2.5728998 7.6205945 0.74934244
-2.5928826 7.679781 0.89348853
-2.5734072 7.622098 1.0245769
-2.5844412 7.654779 1.1679569
-2.5597007 7.5815005 1.2951066
-2.5711055 7.6152797 1.4405855
-2.5778599 7.6352854 1.5852963
-2.5576155 7.5753245 1.7135987
-2.5755146 7.6283393 1.8683581
-2.5605643 7.5840588 2.0005682
-2.5902388 7.6719503 2.169693
-2.6689389 7.5469003 -0.33821446
-2.5509064 7.2131429 -0.19388047
-2.5009422 7.0718598 -0.063348934
-2.4868202 7.0319276 0.062991224
-2.5095785 7.0962801 0.19073933
-2.6467199 7.4840722 0.33539882
-2.7051127 7.649188 0.48019212
-2.7412393 7.7513428 0.62611222
-2.7155447 7.6786866 0.75879902
-2.6935439 7.6164751 0.89051759
-2.7178109 7.6850944 1.0381678
-2.6924369 7.6133451 1.1673955
-2.7083595 7.6583686 1.3147252
-2.681546 7.5825496 1.441507
-2.6926687 7.6140003 1.5887165
-2.6759388 7.5666943 1.7201345
-2.6978688 7.6287045 1.8777131
-2.6797438 7.5774531 2.0087378
-2.6979182 7.6288447 2.1682012
-2.7157383 7.3431563 -0.19839957
-2.6366634 7.129344 -0.064195365
-2.5912874 7.00665 0.063090578
-2.588033 6.9978504 0.18907
-2.6298943 7.1110406 0.32033557
-2.8593223 7.7313972 0.48787221
-2.8418086 7.684041 0.62389767
-2.8205292 7.6265039 0.75755423
-2.8509622 7.7087917 0.90598965
-2.8342872 7.6637039 1.040652
-2.8020504 7.5765381 1.1677819
-2.8210139 7.6278143 1.3162768
-2.7979796 7.5655308 1.4457371
-2.82634 7.6422153 1.6028807
-2.7959015 7.5599122 1.7275133
-2.8301787 7.652595 1.8933705
-2.8092792 7.5960846 2.0241289
-2.7102547 7.3283291 2.0936024
-2.8067505 7.2677908 -0.065796994
-2.7202418 7.0437851 0.06376902
-2.6946197 6.9774394 0.18954119
-2.7016947 6.9957595 0.31685197
-2.7438583 7.1049376 0.45077306
-2.8538833 7.3898363 0.60326493
-2.9298632 7.5865784 0.75767642
-2.9656358 7.6792073 0.90740854
-2.9339936 7.5972733 1.0372277
-2.9721692 7.6961255 1.192649
-2.9394081 7.6112933 1.3205509
-2.9137115 7.5447555 1.4495883
-2.9474571 7.6321354 1.6094503
-2.9166272 7.5523043 1.7351367
-2.9536324 7.6481261 1.9025298
-2.8155999 7.2907052 1.9532934
-2.7453177 7.1087165 2.0418789
-2.9089191 7.2230015 0.065761715
-2.8322933 7.0327353 0.19212487
-2.8038874 6.9622016 0.3171173
-2.80425 6.9631023 0.44427541
-2.8386943 7.0486293 0.57866836
-2.8879733 7.1709919 0.72022605
-2.9867654 7.4162974 0.88130337
-3.0526803 7.579968 1.0407239
-3.0888169 7.6696968 1.1952823
-3.0599833 7.5981016 1.3257254
-3.139957 7.79668 1.5064719
-3.059459 7.5967994 1.6110684
-2.9617057 7.3540726 1.6991587
-2.8951466 7.1888032 1.798394
-2.8431172 7.0596113 1.9020878
-2.8079698 6.9723382 2.0140445
-3.0368338 7.2398405 0.1989498
-2.9415357 7.0126495 0.32129997
-2.9088166 6.9346461 0.44507071
-2.9078496 6.9323411 0.57247978
-2.9259796 6.975563 0.70473218
-2.948926 7.0302677 0.84035993
-2.9844437 7.1149426 0.98264074
-3.0170934 7.1927795 1.1275719
-3.0270467 7.2165079 1.2665746
-3.020165 7.2001023 1.3994106
-2.9978917 7.1470022 1.5246229
-2.9649646 7.0685039 1.6428152
-2.9360297 6.9995227 1.7613751
-2.9063983 6.9288812 1.8778812
-3.2402704 7.7248359 2.2445798
-6.0918941 13.959589 0.64351845
-3.1022017 7.1087017 0.45904452
-3.0380199 6.9616289 0.57843018
-3.0193176 6.9187732 0.70328885
-3.0149364 6.9087334 0.83090568
-3.0252397 6.932343 0.96330374
-3.0412345 6.9689951 1.0992019
-3.0399826 6.9661269 1.2301409
-3.0372667 6.9599032 1.3610358
-3.0323942 6.9487381 1.4914347
-3.0182383 6.9162993 1.6173158
-3.0138526 6.90625 1.7485801
-3.0155563 6.9101539 1.8843106
-5.9918027 13.211149 0.36760437
-5.5735211 12.288892 0.57012075
-5.3848891 11.872983 0.77159619
-5.2486634 11.572622 0.96769303
-3.2108586 7.0795269 0.72422683
-3.1435862 6.9312005 0.83893341
-3.1292436 6.8995767 0.96487576
-3.1248186 6.8898201 1.0936565
-3.6610966 8.0722437 1.4345758
-3.1203008 6.879859 1.353978
-3.1204145 6.8801093 1.4861389
-3.1223965 6.8844795 1.62016
-3.1667314 6.9822326 1.779112
-5.8895626 12.985723 3.563663
-5.9072266 12.54423 0.117099
-5.472662 11.621414 0.32551578
-5.2844315 11.221699 0.52406567
-5.1494946 10.935156 0.71536589
-5.0489516 10.721648 0.90248579
-4.9752679 10.565178 1.0879782
-4.4333487 9.4143915 1.1470551
-3.9141326 8.3118153 1.170086
-3.5731871 7.5878038 1.2124454
-3.3399045 7.0924191 1.2688102
-4.8956976 10.396207 2.0595863
-4.9427662 10.49616 2.2822726
-5.0349669 10.691952 2.5328925
-5.1704102 10.97957 2.8162248
-5.4052143 11.478187 3.1708581
-5.9514713 12.638185 3.7430797
-6.032743 12.349067 -0.11607135
-5.4279346 11.111019 0.1044347
-5.2111759 10.667314 0.30084988
-5.0783625 10.395442 0.48882318
-4.9681187 10.169773 0.66987872
-4.8868051 10.003324 0.84782231
-4.8264437 9.8797636 1.0244049
-4.5879693 9.3916044 1.152162
-4.0500793 8.2905407 1.1751316
-3.6975055 7.568819 1.2177436
-3.4733009 7.1098709 1.2806948
-4.7523351 9.7280626 1.9404976
-4.7822156 9.7892284 2.1432223
-4.8527637 9.9336405 2.369463
-4.9531989 10.139233 2.6185975
-5.1183677 10.477334 2.9143119
-5.3718419 10.996198 3.2792053
-5.5027013 10.866907 -0.10287001
-5.2273211 10.323077 0.097721919
-5.0725207 10.017373 0.28453818
-4.9471989 9.7698832 0.46268997
-4.8530521 9.5839596 0.63580191
-4.7827101 9.4450455 0.80622542
-4.7282014 9.3374004 0.97508615
-4.6846938 9.2514801 1.1430806
-4.1882458 8.2710791 1.1807493
-3.8161254 7.5362043 1.2211593
-3.5810931 7.0720549 1.2829847
-4.6421151 9.1673946 1.8417243
-4.6722932 9.2269917 2.0345614
-4.727581 9.336175 2.242861
-4.8082509 9.4954853 2.4698625
-4.942235 9.7600803 2.7342017
-5.1265693 10.12411 3.0407088
-5.5066957 10.499198 -0.30043221
-5.2052188 9.9243946 -0.094643444
-5.0591497 9.645896 0.09198755
-4.9228616 9.3860464 0.26857963
-4.8186193 9.187295 0.43832079
-4.7306743 9.0196161 0.60279357
-4.6670747 8.8983564 0.7651841
-4.6084599 8.7866001 0.92436081
-4.574914 8.72264 1.0857186
-4.3155951 8.2282171 1.1833274
-3.9373093 7.506968 1.2254283
-3.6970165 7.04882 1.2882376
-4.5290213 8.6351404 1.7476392
-4.5511794 8.6773882 1.9275399
-4.592875 8.7568855 2.1192722
-4.668941 8.9019146 2.3326132
-4.7518263 9.0599451 2.5568569
-4.8996634 9.3418159 2.8265259
-5.6375709 10.384634 -0.49924386
-5.2409835 9.6541042 -0.27836812
-5.0534081 9.3085823 -0.08945141
-4.9392638 9.0983248 0.087430924
-4.8316483 8.9000921 0.25662681
-4.7315135 8.7156401 0.41900656
-4.6469216 8.5598173 0.57645071
-4.5861821 8.4479332 0.73202133
-4.5473418 8.3763876 0.8879624
-4.49014 8.2710199 1.0373982
-4.4601364 8.2157516 1.190594
-4.0562634 7.4718018 1.2290395
-3.8123226 7.0224528 1.293259
-4.451405 8.1996689 1.6722292
-4.4766326 8.2461386 1.8457892
-4.5061636 8.3005362 2.0242324
-4.5637341 8.4065828 2.2197084
-4.6413631 8.5495796 2.4313233
-4.7588673 8.7660255 2.6726468
-5.3096685 9.4553261 -0.45817393
-5.0836167 9.0527792 -0.26310053
-4.9372582 8.7921467 -0.085159071
-4.8467078 8.6308975 0.083597235
-4.7403278 8.4414587 0.24533375
-4.6589246 8.2964973 0.40202087
-4.570909 8.139761 0.55251193
-4.5157814 8.0415907 0.70234025
-4.4707999 7.9614897 0.85067654
-4.4316936 7.89185 0.99769455
-4.4072685 7.8483543 1.1463765
-4.1764073 7.4372425 1.2330616
-3.938791 7.0141015 1.3019701
-4.3859797 7.8104444 1.6054897
-4.4004974 7.8362966 1.7679691
-4.4299569 7.8887568 1.9390771
-4.4787569 7.9756589 2.1226349
-4.5448232 8.0933084 2.3198311
-4.6334696 8.2511683 2.535634
-5.0978074 8.7812557 -0.42900249
-4.9318051 8.4953079 -0.24892488
-4.8162875 8.2963219 -0.081016019
-4.7371025 8.1599216 0.079684034
-4.6409979 7.9943757 0.23424684
-4.5667109 7.8664131 0.38430846
-4.4833989 7.7229033 0.5285182
-4.428287 7.6279702 0.6716823
-4.3865652 7.5561018 0.81398666
-4.3482571 7.4901137 0.95467716
-4.3283629 7.4558454 1.0979812
-4.311049 7.4260206 1.2413045
-4.0495577 6.9755878 1.3054467
-4.3041453 7.4141288 1.5365309
-4.3207116 7.4426651 1.6929402
-4.3281455 7.4554706 1.8476126
-4.3752604 7.5366287 2.0222516
-4.421001 7.6154189 2.2007637
-4.5127048 7.7733841 2.408411
-4.9773235 8.297883 -0.40882629
-4.8382502 8.0660286 -0.23835114
-4.7304955 7.8863859 -0.077666126
-4.6683002 7.7826982 0.076644994
-4.5764003 7.6294885 0.22545137
-4.5001311 7.502337 0.36963072
-4.429287 7.3842301 0.50962752
-4.3779755 7.2986865 0.64813864
-4.3344626 7.2261453 0.78504485
-4.296731 7.1632409 0.92075902
-4.2732916 7.1241646 1.0580356
-4.2598009 7.1016741 1.1971573
-4.17099 6.9536138 1.3123728
-4.2471299 7.0805492 1.4798456
-4.258956 7.100265 1.6287559
-4.2732062 7.1240225 1.7804486
-4.3107014 7.1865315 1.9446691
-4.3534508 7.2578011 2.1152074
-4.4241447 7.3756571 2.3045678
-4.8565884 7.8400035 -0.38965213
-4.7300353 7.6357083 -0.2276125
-4.6410193 7.4920096 -0.074428834
-4.5792589 7.3923101 0.073438376
-4.5022001 7.2679138 0.21664892
-4.4189734 7.1335607 0.35454157
-4.3548622 7.0300655 0.48943645
-4.3061223 6.951385 0.62270713
-4.2688179 6.8911643 0.75521332
-4.2344308 6.8356533 0.88635099
-4.208024 6.7930245 1.0176977
-4.1906996 6.765058 1.1504064
-4.1861281 6.757678 1.28657
-4.1722112 6.7352118 1.4200054
-4.1798968 6.7476182 1.5614254
-4.2109094 6.7976823 1.7137771
-4.2282734 6.8257132 1.8632181
-4.2676992 6.8893585 2.0254242
-4.3215613 6.9763083 2.1988909
-4.7643952 7.4508204 -0.37366059
-4.6678343 7.2998133 -0.21956894
-4.5812516 7.1644106 -0.071818404
-4.5188756 7.0668635 0.07084056
-4.4341493 6.9343643 0.20857669
-4.3666754 6.8288445 0.34246835
-4.3113108 6.7422624 0.47364718
-4.2579012 6.6587372 0.60188949
-4.2193966 6.5985222 0.7296862
-4.1934261 6.5579081 0.85803187
-4.1734924 6.5267348 0.9866519
-4.1512332 6.4919243 1.1139497
-4.1433482 6.4795938 1.24479
-4.1457372 6.4833293 1.3792698
-4.1395369 6.4736328 1.5115802
-4.1523685 6.4937 1.6519544
-4.1838403 6.5429168 1.8021854
-4.2069483 6.5790544 1.9517001
-4.2563486 6.6563096 2.1170151
-4.6632543 7.067699 -0.35775769
-4.5835676 6.9469247 -0.21090627
-4.5112672 6.8373446 -0.069179989
-4.4411297 6.7310433 0.068104438
-4.3778934 6.6352019 0.20144247
-4.3084083 6.5298886 0.33053443
-4.2448549 6.4335666 0.45618275
-4.2029552 6.3700624 0.58117419
-4.1706109 6.3210411 0.70553052
-4.1396956 6.2741857 0.8285777
-4.1074295 6.2252822 0.94987136
-4.0986443 6.2119675 1.0758681
-4.0742311 6.1749668 1.1973488
-4.0835567 6.1891003 1.3289738
-4.0730381 6.1731586 1.4548838
-4.0929656 6.203361 1.5928345
-4.105484 6.2223334 1.7298925
-4.1408629 6.2759542 1.8791746
-4.1848869 6.3426781 2.0361083
-4.7017341 6.908843 -0.49460423
-4.6048799 6.7665229 -0.34581351
-4.5281892 6.6538324 -0.20395492
-4.4631829 6.55831 -0.066996239
-4.3996067 6.4648895 0.066041902
-4.3305564 6.3634253 0.19505329
-4.2614741 6.2619143 0.3200247
-4.214396 6.1927366 0.44333819
-4.157712 6.1094441 0.56276852
-4.1215076 6.0562444 0.68248957
-4.0918717 6.0126963 0.80169761
-4.0703917 5.981133 0.92141366
-4.0556655 5.9594936 1.0420887
-4.0418596 5.9392076 1.1627331
-4.0385714 5.9343758 1.286558
-4.0429034 5.9407411 1.4136014
-4.0465622 5.9461174 1.5414964
-4.0700712 5.9806623 1.6787287
-4.0988951 6.0230169 1.8208195
-4.1265988 6.0637255 1.9653195
-4.6160531 6.5785074 -0.47563684
-4.5286555 6.4539533 -0.33311778
-4.4503732 6.3423901 -0.19634096
-4.4064851 6.2798438 -0.06478925
-4.3427958 6.1890779 0.063852817
-4.2694669 6.0845742 0.18835978
-4.2024531 5.9890699 0.30912307
-4.1481037 5.9116149 0.42741942
-4.118053 5.8687887 0.54597431
-4.0666575 5.7955432 0.6596027
-4.0472493 5.7678838 0.7767002
-4.0270085 5.739038 0.89290637
-4.0116415 5.7171378 1.0096471
-3.9972215 5.6965871 1.1263202
-3.9781449 5.6694007 1.2413296
-3.9908519 5.68751 1.3667973
-3.9984405 5.6983247 1.4919417
-4.0062637 5.7094741 1.6185383
-4.0288258 5.7416277 1.7530061
-4.0672884 5.796442 1.8973645
-4.5500507 6.2909899 -0.45951059
-4.4779501 6.1913018 -0.32283631
-4.4153385 6.1047339 -0.19092074
-4.3688884 6.0405111 -0.062958762
-4.2939386 5.9368839 0.061878685
-4.2293735 5.8476152 0.18287955
-4.1651335 5.7587962 0.30028394
-4.128726 5.7084579 0.41696092
-4.0811625 5.6426959 0.53032094
-4.0416493 5.5880637 0.64250726
-4.0147176 5.550828 0.75513232
-3.9931812 5.5210514 0.86779469
-3.9754524 5.4965391 0.98063791
-3.9613426 5.4770303 1.0940084
-3.9581351 5.4725957 1.2105193
-3.9574668 5.4716721 1.3284047
-3.9664078 5.4840336 1.4505516
-3.9746144 5.4953799 1.5738126
-3.9979413 5.5276322 1.704967
-4.0173402 5.5544538 1.8367881
-4.4871645 6.0206656 -0.44441116
-4.4160609 5.9252625 -0.31222805
-4.3617234 5.852355 -0.18496133
-4.3157711 5.7906985 -0.060992632
-4.2423296 5.6921577 0.059954714
-4.178617 5.6066713 0.17719659
-4.1188178 5.5264354 0.29121211
-4.0705876 5.4617229 0.40315321
-4.041296 5.42242 0.51500237
-4.0015426 5.369081 0.62385052
-3.9797537 5.3398461 0.73410463
-3.9580088 5.3106699 0.84354538
-3.9365478 5.2818742 0.95229459
-3.9135971 5.25108 1.0599567
-3.9081728 5.2438021 1.1721646
-3.9162965 5.2547021 1.2892061
-3.9149814 5.2529373 1.4041038
-3.9245889 5.2658281 1.5240033
-3.9386446 5.2846875 1.6472521
-3.9674797 5.3233771 1.7789708
-4.414041 5.7489629 -0.42897528
-4.3582087 5.6762447 -0.30236238
-4.312881 5.6172094 -0.17946228
-4.2568455 5.5442271 -0.059032306
-4.2024183 5.4733396 0.058277529
-4.1335521 5.383646 0.17200026
-4.0794425 5.3131723 0.28302222
-4.0389233 5.2603993 0.39251974
-4.0009937 5.210999 0.50031018
-3.9706006 5.1714139 0.60742438
-3.9368494 5.1274557 0.71257973
-3.9183605 5.1033754 0.8194434
-3.9006805 5.0803485 0.92593199
-3.8880837 5.063942 1.0333096
-3.8826196 5.0568256 1.1426746
-3.8767226 5.0491447 1.2522597
-3.874707 5.0465198 1.3636135
-3.8829265 5.0572252 1.4795641
-3.8990624 5.0782409 1.6001339
-3.9216738 5.1076908 1.7254742
-4.3876991 5.5484161 -0.41865426
-4.3212771 5.4644227 -0.29434365
-4.2788835 5.4108143 -0.17480706
-4.2398009 5.3613935 -0.057725821
-4.1536846 5.2524958 0.056553327
-4.0939641 5.1769772 0.16725248
-4.0567985 5.1299796 0.27632868
-4.0106349 5.0716038 0.38267654
-3.9815826 5.0348663 0.48882118
-3.9406195 4.9830666 0.5918659
-3.9068885 4.940412 0.69428611
-3.8929272 4.9227576 0.79930705
-3.8845131 4.912118 0.90531164
-3.8668718 4.8898096 1.0089681
-3.8597457 4.8807988 1.1152679
-3.8539355 4.8734512 1.2222413
-3.859165 4.8800645 1.3334249
-3.8547602 4.8744941 1.4420981
-3.8709071 4.8949127 1.5596664
-3.8930228 4.9228787 1.6816932
-4.3319731 5.3196578 -0.40603039
-4.2812366 5.2573528 -0.28646123
-4.235652 5.201375 -0.16998196
-4.1977277 5.1548042 -0.056142658
-4.118247 5.0572019 0.055079643
-4.070013 4.9979711 0.16333468
-4.020534 4.9372106 0.2690174
-3.981317 4.8890524 0.37316382
-3.9428296 4.8417897 0.4755064
-3.9092872 4.8006001 0.57678038
-3.874964 4.758451 0.67643988
-3.862587 4.7432518 0.77905786
-3.8457742 4.7226057 0.88043922
-3.8352542 4.7096872 0.98302805
-3.8249488 4.6970325 1.085676
-3.815721 4.6857004 1.1887299
-3.8192129 4.6899886 1.296293
-3.8216071 4.6929288 1.4044217
-3.8433118 4.7195821 1.5211731
-3.855438 4.7344728 1.6360162
-4.2894993 5.1161757 -0.39514509
-4.2388611 5.055778 -0.27875525
-4.2054811 5.0159655 -0.16587293
-4.1605902 4.9624233 -0.054690376
-4.0902472 4.8785233 0.053765725
-4.0317078 4.808702 0.15901893
-3.9772024 4.7436924 0.2615481
-3.9472723 4.7079945 0.36361945
-3.9073298 4.6603541 0.46313292
-3.8811824 4.6291676 0.56280017
-3.8437712 4.5845461 0.65947193
-3.8336334 4.5724549 0.75993991
-3.827879 4.5655913 0.8612932
-3.7967136 4.5284195 0.956438
-3.7971027 4.5288839 1.0592638
-3.7926092 4.5235243 1.1612397
-3.794147 4.5253582 1.2656705
-3.8040757 4.5372009 1.3739721
-3.8069479 4.5406265 1.4809051
-3.8338592 4.5727239 1.598922
-4.2500219 4.924192 -0.3849763
-4.202353 4.8689613 -0.27174354
-4.1694055 4.8307877 -0.16170624
-4.1190839 4.7724838 -0.053241394
-4.0562668 4.6997018 0.052429445
-4.0122638 4.6487193 0.15561166
-3.9615972 4.5900149 0.25617513
-3.9251342 4.5477681 0.35554722
-3.8989015 4.517374 0.45442334
-3.8557718 4.4674029 0.54978675
-3.8376663 4.4464254 0.64743888
-3.8145974 4.4196973 0.74355006
-3.804817 4.4083652 0.8418203
-3.7851999 4.3856363 0.93762809
-3.7761717 4.375176 1.0358487
-3.778446 4.377811 1.1376007
-3.7765121 4.3755708 1.2387687
-3.7752783 4.3741407 1.3408201
-3.7912543 4.3926511 1.4501936
-3.7920842 4.3936129 1.5551128
-4.2057738 4.7342134 -0.37479168
-4.1756659 4.7003226 -0.26564011
-4.1331201 4.652431 -0.15770006
-4.0846081 4.5978236 -0.051939812
-4.0262289 4.5321097 0.051197466
-3.9739058 4.4732122 0.15162522
-3.9355984 4.4300919 0.25036791
-3.8976874 4.3874173 0.34733701
-3.8570385 4.341661 0.44225585
-3.8351896 4.3170667 0.53798604
-3.8034236 4.2813096 0.6312589
-3.796026 4.2729826 0.72793382
-3.7791796 4.2540197 0.82259184
-3.7659054 4.2390776 0.91772473
-3.7609692 4.233521 1.0149523
-3.7471073 4.2179174 1.1098747
-3.7415152 4.2116227 1.2073914
-3.7497845 4.2209311 1.3101743
-3.7663825 4.2396145 1.4173226
-3.7677376 4.2411399 1.5200778
-4.1776071 4.5690947 -0.3664161
-4.1368623 4.5245318 -0.25902513
-4.110137 4.4953022 -0.15435231
-4.0494208 4.4288964 -0.050681081
-3.9890537 4.3628721 0.049925547
-3.9496126 4.3197351 0.14832395
-3.9084692 4.2747359 0.24472454
-3.8699429 4.2325993 0.33943102
-3.8404493 4.2003422 0.43341565
-3.8112345 4.1683893 0.52620232
-3.7850983 4.1398039 0.61831951
-3.774245 4.1279335 0.71235383
-3.7537205 4.1054859 0.80417717
-3.7475362 4.098722 0.8988595
-3.7345905 4.0845628 0.99195457
-3.7210708 4.0697765 1.0847976
-3.7172782 4.0656281 1.1806701
-3.7252929 4.0743937 1.2811092
-3.7317498 4.0814562 1.3821646
-3.7462451 4.0973096 1.4875935
-4.1434226 4.4034648 -0.35785291
-4.1062369 4.363946 -0.25317058
-4.0779734 4.3339081 -0.15079938
-4.0302615 4.2832022 -0.049668901
-3.9634316 4.2121778 0.048845287
-3.9130793 4.1586652 0.14470176
-3.8843534 4.1281366 0.23949032
-3.8530076 4.0948234 0.33277079
-3.8151858 4.0546279 0.42397144
-3.7863109 4.023941 0.51475638
-3.7616293 3.9977105 0.60507625
-3.749265 3.98457 0.69680327
-3.7255142 3.9593284 0.78591281
-3.7187808 3.9521725 0.87830406
-3.7103782 3.9432425 0.97043246
-3.7025509 3.9349241 1.0628701
-3.7050197 3.9375479 1.1587571
-3.6961384 3.9281092 1.2516195
-3.705734 3.938307 1.351512
-3.7114227 3.9443529 1.4511987
-4.0654335 4.198524 -0.24692434
-4.0578961 4.1907396 -0.14782365
-3.9836085 4.1140203 -0.048363283
-3.9520905 4.0814705 0.047980636
-3.9030709 4.0308461 0.14218359
-3.865412 3.9919543 0.23477553
-3.8163519 3.941288 0.32469946
-3.7901187 3.9141963 0.41491732
-3.7550442 3.8779733 0.50290775
-3.7522955 3.8751347 0.59459192
-3.7271433 3.849159 0.68238258
-3.7086592 3.83007 0.77071345
-3.704433 3.8257053 0.86189407
-3.691678 3.8125327 0.95117146
-3.6887147 3.8094726 1.0431387
-3.6770973 3.7974749 1.1329085
-3.6816866 3.8022141 1.2281708
-3.693409 3.8143203 1.3269693
-3.6830211 3.8035924 1.4186606
-4.0362225 4.0507064 -0.24160384
-4.0093875 4.0237756 -0.14394374
-3.9651604 3.9793894 -0.047442939
-3.9108863 3.9249206 0.046793554
-3.8767319 3.8906436 0.13918117
-3.8337243 3.8474815 0.22948252
-3.7966447 3.8102691 0.31834999
-3.7684255 3.7819486 0.40657476
-3.7512474 3.7647088 0.49513167
-3.7156074 3.728941 0.58026111
-3.6950843 3.7083442 0.66672683
-3.692126 3.7053754 0.75617832
-3.6783082 3.6915081 0.84343576
-3.6680586 3.6812215 0.93141448
-3.6613705 3.6745095 1.0204281
-3.6575873 3.6707127 1.1105961
-3.6706884 3.6838608 1.2067885
-3.6616147 3.6747544 1.2965157
-3.6694913 3.6826594 1.3930024
-4.024981 3.9254253 -0.23754336
-3.9877908 3.8891549 -0.14115536
-3.936985 3.8396058 -0.046443496
-3.8810408 3.7850454 0.045783538
-3.8523116 3.7570269 0.13635983
-3.8207655 3.7262609 0.22549112
-3.777468 3.6840343 0.31228849
-3.7581627 3.6652067 0.39976645
-3.7238088 3.6317024 0.4845992
-3.7160828 3.6241674 0.57217562
-3.6836107 3.5924988 0.65531123
-3.6695919 3.5788264 0.74099582
-3.6628935 3.572294 0.8280918
-3.6496203 3.5593488 0.91370225
-3.6382787 3.5482881 0.99973518
-3.6459479 3.5557675 1.0914961
-3.6430879 3.552978 1.180874
-3.6421094 3.5520239 1.2714769
-3.6622291 3.571646 1.3706981
-4.0097084 3.8000906 -0.233408
-3.9617734 3.7546616 -0.13831796
-3.9139044 3.709295 -0.045540236
-3.8618097 3.6599238 0.04493409
-3.8362229 3.6356745 0.13393459
-3.7893562 3.591258 0.22058116
-3.7600715 3.563504 0.30660215
-3.7334857 3.5383081 0.39171407
-3.7131658 3.5190506 0.47661045
-3.6888292 3.4959862 0.5602172
-3.6725249 3.4805343 0.64441037
-3.6586716 3.4674053 0.72869426
-3.6442435 3.4537313 0.81261623
-3.6379287 3.4477468 0.89832836
-3.6285248 3.4388342 0.98342896
-3.6251299 3.435617 1.0704323
-3.6289811 3.4392669 1.1602259
-3.623878 3.4344306 1.2478229
-3.6362348 3.4461412 1.3423697
-3.9673409 3.65359 -0.22787426
-3.9332016 3.6221504 -0.13549645
-3.8864264 3.5790746 -0.044619873
-3.8429143 3.5390034 0.044120312
-3.7999711 3.4994564 0.13090675
-3.7696984 3.4715776 0.21652217
-3.747298 3.4509487 0.30150196
-3.7097359 3.4163573 0.3840524
-3.6905842 3.39872 0.46741983
-3.6700613 3.3798203 0.54996365
-3.6463177 3.3579545 0.6313135
-3.6461403 3.3577909 0.71655262
-3.6300876 3.3430078 0.79870796
-3.6193631 3.3331316 0.88187265
-3.6229675 3.3364508 0.9688803
-3.6134908 3.3277235 1.0528231
-3.6094182 3.3239729 1.1386436
-3.6192265 3.3330054 1.2296681
-3.6175222 3.3314362 1.3177234
-3.9196041 3.5072939 -0.22222617
-3.9122224 3.5006886 -0.13303395
-3.8576307 3.4518394 -0.043717541
-3.8202717 3.4184103 0.043294162
-3.7896419 3.3910027 0.12886564
-3.7583385 3.362992 0.21308304
-3.7141867 3.3234847 0.2949802
-3.6879625 3.300019 0.37686968
-3.6720245 3.2857575 0.45906568
-3.6528845 3.268631 0.5403235
-3.6280029 3.2463667 0.62003392
-3.6205513 3.2396991 0.70233881
-3.612675 3.2326512 0.78461576
-3.5947721 3.2166314 0.86457425
-3.5978522 3.2193875 0.94974333
-3.5867839 3.2094836 1.0315514
-3.5773666 3.201057 1.1139644
-3.5870922 3.2097592 1.2030175
-3.5891085 3.2115636 1.2904965
-3.8721285 3.3662741 -0.2167805
-3.8839157 3.3765213 -0.13041459
-3.8476126 3.3449609 -0.04305701
-3.8028598 3.3060546 0.0425562
-3.7589736 3.2679019 0.12621927
-3.7305105 3.2431571 0.20885202
-3.7046466 3.2206721 0.29053158
-3.693434 3.2109244 0.37269408
