# .PCD v0.7 - Point Cloud Data file format
VERSION 0.7
FIELDS x y z
SIZE 4 4 4
TYPE F F F
COUNT 1 1 1
WIDTH 1579
HEIGHT 1
VIEWPOINT 0 0 0 1 0 0 0
POINTS 1579
DATA ascii
-31.050093 75.268967 1.9165355
-29.904987 75.250504 1.9043863
-27.673285 75.25592 1.8828231
-26.57653 75.259018 1.8727932
-25.4893 75.256325 1.8630778
-24.413172 75.253387 1.853822
-17.150204 75.255081 1.801865
-16.143124 75.252762 1.7960192
-15.142544 75.25119 1.7905844
-13.159629 75.254379 1.7810324
-11.197614 75.267303 1.7732364
-5.3882098 75.257835 1.7572627
-3.4693217 75.260132 1.7549082
-1.5535034 75.251152 1.7536525
-0.59590912 75.254082 1.7537396
0.36199558 75.251648 1.754034
1.3211087 75.261307 1.7549925
4.2059703 75.258537 1.7591351
6.140202 75.256615 1.7636589
12.035521 75.268173 1.7863998
13.034629 75.264252 1.7913461
15.050152 75.250153 1.8022403
16.072886 75.261131 1.8087687
17.102003 75.266151 1.815546
18.137857 75.265587 1.8225877
19.181343 75.261497 1.8299563
22.376234 75.269363 1.8552402
24.553152 75.254974 1.8738409
27.921936 75.258881 1.9061133
29.070763 75.255745 1.9177743
30.236509 75.256577 1.9300876
31.426706 75.27462 1.9434556
33.828415 75.250572 1.9701802
35.07803 75.278931 1.9856346
-5.4689331 -17.895401 2.0059628
-5.3080788 -14.596086 2.1541562
-5.4192238 -13.335526 2.0412242
-5.3018398 -11.086024 2.1729431
6.7813458 9.3403311 2.2423007
6.7472835 9.5165873 2.2394352
6.7770095 9.6420765 2.1765628
6.7440987 9.758194 2.2487478
6.7731719 9.8243227 2.107908
6.7703075 10.069813 2.1190071
6.8044815 10.263864 2.1378095
-5.5699649 14.639814 2.0159998
-5.5424776 14.902519 2.0718963
-5.5694137 15.161384 2.063385
-5.615181 15.352211 2.0392828
-5.4863324 15.360372 2.1701994
-5.5758319 15.640606 2.0972643
-5.4610724 15.554137 2.2124081
-5.6163282 15.965547 2.0959897
-5.6008391 16.203726 2.1451066
-5.654573 16.448503 2.1227067
-5.8036523 16.739904 2.031817
-5.6314487 16.695681 2.1717486
-5.7775259 16.991579 2.0777016
-5.6096668 16.959753 2.2249005
-5.765656 17.287457 2.1338961
-5.8676066 17.671179 2.1265209
-5.961597 18.054478 2.113327
-5.9481163 18.402241 2.1749113
-6.2364016 18.653696 2.0453146
-6.2639394 19.117737 2.1235733
-6.7376475 19.746616 2.0438612
-6.2590775 19.537365 2.1925938
-6.8504901 20.446508 2.1552491
-51.617958 74.994171 2.1787617
-50.128819 74.977867 2.1557248
37.440125 74.993935 2.0082204
-54.870308 75.244583 2.2349541
-53.304565 75.223 2.2097447
-48.701717 75.005043 2.1349769
-46.049522 75.239334 2.1015983
-43.339817 75.243988 2.064043
-42.020191 75.244659 2.0463271
-39.4389 75.230263 2.0125196
38.758419 75.039848 2.026118
40.049656 75.003395 2.042217
-47.454956 75.254257 2.1220922
-44.687675 75.250175 2.0827048
-40.733841 75.263443 2.0298665
-5.107831 -18.060009 2.4676964
-5.2105575 -16.18232 2.2974172
-5.1135793 -13.420959 2.4206748
-5.2141752 -12.197984 2.2907228
-5.141232 -10.262785 2.4059434
-5.2240505 -9.3359222 2.2930999
6.8328338 9.1652136 2.2507555
-21.859423 9.7238321 2.2572336
6.7438016 9.8800297 2.2544813
-21.866566 10.017272 2.2606621
6.744328 10.064276 2.2643361
-21.891872 10.313353 2.2665763
6.7843575 10.32196 2.2900033
10.451034 10.922585 2.4121354
10.541079 10.762002 2.4229205
10.448465 11.101677 2.4194367
-25.603773 11.368855 2.2731619
10.425248 11.367581 2.4275455
10.515508 11.666545 2.4598978
-5.4262385 15.87043 2.2830794
-5.3909993 16.208599 2.3598495
-5.4294853 16.431341 2.3371038
-5.4093881 16.691889 2.3960083
-5.4515371 16.942219 2.3745804
-5.5920343 17.248602 2.2841341
-5.4305382 17.229589 2.4381626
-5.5741882 17.555058 2.3475406
-5.6471915 17.903913 2.3360586
-5.6138411 18.21283 2.4920888
-5.7264462 18.282356 2.3257611
-5.8733988 18.628712 2.4067113
-5.7249331 18.687815 2.406209
-5.9561253 18.823544 2.251946
-6.1104426 19.187262 2.3299963
-5.9509192 19.242241 2.3279481
-5.7161551 19.10401 2.4886982
-5.971128 19.75609 2.4237285
-6.4081106 20.122124 2.3001289
-6.3574529 20.744059 2.4005554
-70.394714 74.966797 2.4970684
-66.579849 74.985779 2.428303
-64.734695 74.977776 2.395437
-68.488754 75.004906 2.4630013
-61.42646 75.224884 2.3428917
-59.743061 75.248222 2.3148546
-58.056538 75.219658 2.2861915
-63.201233 75.253944 2.3739851
-56.474953 75.26873 2.2612817
-5.0244098 -14.94825 2.5841846
-4.9638181 -12.51623 2.6825595
-5.0430007 -11.248402 2.5262015
-4.9986501 -9.5319586 2.6250844
-5.0767999 -8.6347294 2.5009384
-4.965486 -8.1047487 2.7137043
10.497091 10.221045 2.6092868
10.428222 10.385761 2.6005423
10.41684 10.648417 2.6084733
10.404158 10.912338 2.61725
-25.500666 11.007499 2.6712692
10.412809 11.093303 2.6276255
-25.506208 11.356319 2.6766615
10.408807 11.363351 2.6406534
-25.524544 11.708343 2.6840472
10.424055 11.641166 2.659173
10.491862 11.845434 2.685245
-5.3136907 16.964836 2.5353253
-5.3023491 17.282999 2.6126242
-5.3684316 17.560724 2.6283765
-5.5300364 17.819616 2.5838876
-5.3978467 17.885328 2.5863941
-5.3801107 18.24456 2.6684332
-5.5295362 18.62673 2.5741136
-5.5162191 19.041271 2.6631956
-5.7134433 19.567764 2.5817032
-5.7188892 20.091049 2.6878467
-5.9913297 20.309565 2.5272961
-6.0207038 20.933212 2.6449997
-6.4626579 21.567701 2.5458603
-83.396744 74.947105 2.7454183
-81.041451 74.945168 2.6989858
-78.78746 74.962288 2.6554015
-76.619423 74.99073 2.6142066
-74.452026 74.957642 2.5724609
-72.460754 75.026329 2.5363719
53.537807 93.882553 2.6422911
55.241978 93.817314 2.6642244
57.068336 93.885452 2.6913068
58.844063 93.827919 2.7154825
60.735874 93.882317 2.7442863
-4.9383397 -16.815928 2.7851083
-4.8819056 -14.00365 2.8668287
-4.8474402 -11.81327 2.9439244
-4.9223919 -10.579448 2.7710226
-4.8945279 -8.9983778 2.8524444
-4.8676968 -7.6391897 2.9210327
9.4954481 8.1606874 2.9527857
9.1553059 8.4719887 2.8616943
9.2815046 8.3189182 2.8951941
9.0489569 8.6220016 2.834084
10.325568 8.6546831 2.9626799
8.9113865 8.8422976 2.7996633
9.9601116 8.9742861 2.8749137
10.119833 8.8160925 2.9127736
8.8536215 9.1374435 2.7893126
9.8602448 9.1322508 2.8525681
11.279943 9.2297115 2.9789388
9.7322006 9.3663845 2.8255832
11.027383 9.3928986 2.9235353
9.678669 9.6042681 2.818382
10.875342 9.6481724 2.8942473
9.662425 9.8462372 2.8219974
10.440645 9.8631353 2.7999315
12.350811 9.9034462 2.9935875
10.392657 10.117514 2.7972198
11.936056 10.248175 2.9150059
12.14184 10.078265 2.9537244
10.369463 10.375581 2.8014698
13.522313 10.69184 2.9975269
10.389655 10.909043 2.8299122
13.436778 10.898167 2.9876301
9.2274399 11.146288 2.9788625
10.040059 11.181947 2.9778626
10.371272 11.083578 2.8346851
13.310616 11.095529 2.9701679
9.2126865 11.389853 2.9924412
10.37497 11.354599 2.8505626
9.1613178 11.624211 2.9971275
10.384459 11.630074 2.869164
9.0407887 11.753235 2.9768145
10.399529 11.818384 2.8845921
9.8853321 12.025541 2.998852
10.469962 12.025673 2.9141831
-5.2505569 17.91321 2.7643008
-5.244144 18.314932 2.8645561
-5.3651385 18.637947 2.7592471
-5.2270613 18.718611 2.9648852
-5.3556776 19.077524 2.861958
-5.5098357 19.507704 2.7647066
-5.3401976 19.535812 2.9691637
-5.5162606 20.050169 2.8844607
-5.7317519 20.679703 2.8083205
-5.7808151 21.431015 2.9650066
-6.084506 21.710194 2.7940576
-6.6827073 22.780344 2.7645414
-6.2130632 22.755278 2.9979458
-93.768265 74.988396 2.9563429
-85.881317 74.984428 2.7955546
-21.171776 74.992874 2.996845
-18.096804 74.986732 2.9620275
-17.089226 74.994041 2.9521914
-16.087557 74.998581 2.9428892
-14.099917 74.995979 2.925703
-12.133799 74.993294 2.9110355
-9.218133 74.996147 2.8939269
-2.5070915 74.995163 2.8743975
-0.59936601 74.988098 2.8737483
3.2242236 74.998207 2.8804295
10.991116 74.998589 2.9212663
12.977382 74.999161 2.9376378
17.027292 74.995987 2.9780173
-91.060402 75.003387 2.9008222
-88.477051 75.03582 2.8487091
-20.142675 75.00518 2.9851906
-19.119381 75.009735 2.9738812
-15.092269 75.004387 2.9342892
-13.117396 75.011909 2.9188135
-11.160635 75.012154 2.9055061
-10.188208 75.009888 2.8996644
-8.2548552 75.013985 2.890156
-7.2914085 75.003685 2.8857586
-6.331192 75.000893 2.8822744
-5.3737431 75.010239 2.879899
-4.4168544 75.002159 2.8773544
-3.4617207 75.005417 2.8758776
-1.5531763 75.004288 2.8743296
0.35530937 75.005867 2.8752062
1.3105441 75.006783 2.8765168
2.2667153 75.003319 2.8782187
4.1842213 75.001122 2.8835702
5.1471076 75.008568 2.8874953
6.1122551 75.009834 2.8917441
7.0793686 75.001495 2.8961725
8.0513411 75.003769 2.9016604
9.0284576 75.012886 2.9080534
10.007445 75.005638 2.9143462
11.982449 75.004211 2.9293683
13.984882 75.022087 2.9477859
14.991142 75.010162 2.9570534
16.004818 75.000526 2.9670839
18.064623 75.014656 2.9906788
63.115688 94.532265 2.7935216
-4.8118663 -15.887753 3.1015556
-4.7805338 -13.331851 3.1580081
-4.7599664 -11.285025 3.2109549
-4.8220582 -10.023026 3.0124326
-4.8117437 -8.5742292 3.0825255
-4.7974973 -7.305088 3.1398134
-4.774631 -6.1600275 3.1814685
11.59535 9.0630274 3.0494349
12.662162 9.7331829 3.0559678
13.845956 10.517548 3.0552826
10.087552 11.370181 3.0010402
15.367383 11.476324 3.08145
15.747096 11.291767 3.1424603
10.091521 11.638826 3.0199013
15.194757 11.692354 3.0585895
10.009296 11.884288 3.0176816
14.962855 11.891936 3.0253537
14.983987 12.144244 3.0390689
10.889843 12.349422 3.0298715
15.10697 12.423774 3.0722983
-29.021637 12.599254 3.0809937
11.964713 12.696005 3.0409839
12.201707 12.556697 3.0803308
15.172356 12.693819 3.0957246
13.672262 12.770983 3.1170182
-29.298628 13.050122 3.1194761
13.698091 13.015625 3.1358609
15.392745 13.010468 3.1487901
15.409798 13.276792 3.1649561
15.520345 13.574498 3.1994426
-5.2101779 19.155952 3.0743577
-5.2031841 19.661264 3.2026064
-5.3386087 20.076197 3.0975847
-5.531148 20.6661 3.0216327
-5.3470635 20.698435 3.246937
-5.5433631 21.330376 3.1699347
-5.8354144 22.270542 3.1407154
-29.623016 74.586601 3.1023083
-102.584 74.946777 3.1409798
-96.60907 74.99015 3.0154686
-35.613739 74.999023 3.2265923
-32.076408 74.994957 3.1606643
-28.677456 74.995117 3.1030803
-27.570459 74.992477 3.085458
-25.394869 74.992378 3.0528667
-22.21505 74.999237 3.0100441
19.098501 74.992096 3.0021968
24.453627 74.998085 3.0762036
25.559303 74.999962 3.0933781
26.671944 74.98761 3.1107166
32.479118 74.987061 3.2134645
-105.90582 75.012512 3.2130756
-99.613792 75.022736 3.0790973
-34.421066 75.003708 3.2039549
-33.248604 75.015953 3.1826351
-30.932953 75.003044 3.1409793
-29.800285 75.003281 3.1218009
-26.482603 75.007835 3.0694754
-24.327581 75.002945 3.0382214
-23.269106 75.009514 3.0241449
20.153265 75.007507 3.0161388
21.21262 75.006157 3.0300601
22.287401 75.019051 3.0453796
23.369898 75.022018 3.0610175
27.810232 75.003548 3.1302233
28.959084 75.010025 3.1501651
30.118322 75.006111 3.1705143
31.304621 75.025185 3.1928842
33.706505 75.018394 3.2383709
-4.7507176 -18.28544 3.4014759
-4.7243791 -15.245908 3.4291902
-4.7039528 -12.824489 3.4543808
-4.6925035 -10.877745 3.4831824
-4.748951 -9.6177206 3.2634077
-4.7401438 -8.2074165 3.3108003
-4.738791 -7.0257449 3.3604238
-4.7247305 -5.9384575 3.3926241
-4.7192163 -5.0172882 3.4305284
-4.7086835 -4.1802955 3.4605718
-32.132111 13.981006 3.4460914
-5.1937103 20.204735 3.3410568
-5.3687449 21.425877 3.4231355
-5.6007538 22.212322 3.3704264
-6.0059934 23.58593 3.4222605
-6.5723748 24.642868 3.3748398
-112.68386 74.939888 3.3591852
-109.20308 74.967636 3.2836888
-45.884426 74.990623 3.4476783
-44.521404 74.991783 3.4159341
-43.185703 74.996803 3.3856468
-41.857536 74.975357 3.3552403
-39.292427 74.971298 3.2998786
36.1628 74.978081 3.2862542
-47.288975 75.011765 3.4818966
-40.582527 75.004608 3.3285527
-38.059029 75.001778 3.275454
-36.831219 75.008186 3.2508907
34.931141 75.008865 3.2623148
37.451435 75.011894 3.3144588
38.75993 75.040955 3.3435755
40.049698 75.002075 3.3704479
-4.6383772 -17.362423 3.7293291
-4.6183553 -14.467842 3.7143419
-4.6086593 -12.192948 3.7125797
-4.6052198 -10.3506 3.7192633
-4.6783257 -9.226162 3.5046811
-4.6030588 -8.8088198 3.7284768
-4.6802173 -7.9004726 3.540947
-4.6015406 -7.497333 3.7394915
-4.6693506 -6.6952372 3.5608628
-4.6610069 -5.6553869 3.5820293
-4.6500306 -4.7292318 3.5991004
17.103098 14.352486 3.51228
-5.2062588 20.875076 3.5145192
-5.2459059 21.711111 3.7334864
-5.4382267 22.399166 3.6625676
-5.7277522 23.434959 3.6523089
-54.660183 74.980293 3.6674397
-53.125977 74.991554 3.6275258
-51.620056 74.996117 3.5888486
-50.138943 74.990921 3.5511889
-56.271717 75.020424 3.7118793
-48.703014 75.006073 3.5160873
-4.5333991 -11.694283 3.9770246
-4.5341716 -9.9215841 3.9600387
-4.5345182 -8.4288044 3.9482849
-4.5428863 -7.1968851 3.9517272
-4.6026006 -6.3775311 3.7546778
-4.5473614 -6.1146746 3.9540896
-4.5957408 -5.3654404 3.7613082
17.203152 14.38444 3.87498
-5.5687428 23.710669 3.9885671
-7.1707058 27.533762 3.9557443
-64.742523 74.985046 3.9491067
-61.223629 74.997551 3.8481631
-59.52346 74.995018 3.8002658
-57.85511 74.980553 3.7536311
-62.979111 75.012085 3.8987901
-4.5588512 -16.709242 4.0710673
-4.5376816 -13.875966 4.0079765
-4.4863877 -9.6332178 4.2207804
-4.4908323 -8.1867638 4.1916461
-4.4938736 -6.9458966 4.1688328
-5.3227172 22.779282 4.0160112
-6.0759444 25.630756 4.1671214
-6.5196223 26.267824 4.0074387
-7.2164106 28.760571 4.1912117
-4.6499515 62.521046 4.1808987
-2.3214009 62.579521 4.1785803
-3.8859625 62.827366 4.2013745
-3.1156604 63.184765 4.2266068
-77.430397 68.309151 4.1519279
-77.235397 69.935173 4.189734
-77.009499 71.568016 4.2275538
-74.451408 74.955994 4.242743
-70.391769 74.962898 4.1173143
-66.56868 74.97332 4.0025334
-20.138371 74.989494 4.156271
-17.087496 74.986473 4.1107478
-15.088636 74.986511 4.0851607
-14.10009 74.996918 4.0743504
-12.132918 74.987968 4.053545
-10.185647 74.990654 4.03689
-6.3308349 74.997467 4.0137305
-5.3725877 74.992416 4.009593
-2.50687 74.991173 4.0029016
-1.552997 74.995285 4.0025611
0.35506284 74.989937 4.0034914
2.2666588 74.998337 4.0084853
5.1464639 74.999481 4.0214095
14.986929 74.991463 4.1188512
16.00149 74.986244 4.1332378
21.209883 74.996658 4.2220607
-72.468445 75.032471 4.1832294
-68.487541 75.002678 4.0607934
-24.410133 75.243652 4.2465425
-22.217722 75.007484 4.1924553
-21.175314 75.004547 4.1742439
-19.117722 75.00322 4.1410618
-18.101652 75.006004 4.1261249
-16.089733 75.008423 4.0988483
-13.118012 75.015549 4.064918
-11.159668 75.005783 4.0457907
-9.2193336 75.007141 4.0307465
-8.2543612 75.009933 4.0246091
-7.2932301 75.025787 4.0200868
-4.4168396 75.004951 4.0073285
-3.4615519 75.0047 4.0051079
-0.5989902 75.001762 4.003171
1.3112384 75.01815 4.0070238
3.2253873 75.011177 4.012723
4.1847649 75.004524 4.0166068
6.1130667 75.014488 4.0282493
7.0803022 75.006462 4.0345335
8.0516891 75.004082 4.0420003
9.0298052 75.019371 4.0513878
10.009813 75.017395 4.0605884
10.99201 75.001488 4.0698066
11.985095 75.015503 4.0817289
12.97911 75.005371 4.0930672
13.985542 75.023232 4.1070275
17.033148 75.015442 4.1507134
18.064735 75.013481 4.1672244
20.232538 75.249893 4.2183609
-23.348625 75.252731 4.2269721
19.183254 75.26458 4.2005901
-4.5152407 -16.351427 4.4454713
-4.4868188 -13.503067 4.3264422
-4.4829302 -11.360077 4.2616429
-4.4518871 -9.4251642 4.4939322
-4.4596567 -8.0141668 4.4475694
17.347569 14.73005 4.2740211
-6.7460885 28.167677 4.4147258
-7.2441711 30.053267 4.4391198
-80.231384 68.712128 4.2565384
-76.703201 73.164604 4.2625971
-29.735554 74.851212 4.3381019
-76.678993 75.04245 4.3155565
-34.420696 75.002335 4.4627275
-33.356857 75.242744 4.4480863
-32.190674 75.243515 4.418725
-28.780977 75.248558 4.338285
-27.670732 75.248421 4.313736
-26.48151 75.004456 4.2747083
-25.485176 75.243927 4.2677612
23.453856 75.245514 4.2804427
27.916473 75.243622 4.3790832
32.606571 75.235504 4.496973
-31.045931 75.25843 4.3915601
-29.907928 75.256363 4.3645124
22.373913 75.259903 4.259501
24.555836 75.25898 4.3042688
25.664879 75.258461 4.3283353
26.784763 75.252907 4.3532372
29.070274 75.251854 4.4073024
30.235559 75.251762 4.4362388
31.428001 75.274452 4.4679956
53.526489 93.863182 4.3613791
55.247974 93.824547 4.399519
57.063976 93.877304 4.4440327
58.841904 93.823044 4.4847226
-4.4660645 -13.35134 4.6819267
-4.4558935 -11.181332 4.5732193
17.442177 14.76174 4.6502171
-5.5814619 24.703117 4.5342636
-43.341743 75.245613 4.7343903
-42.011608 75.22905 4.6920753
-39.444538 75.238831 4.6153431
-38.192616 75.244736 4.5793676
-35.732933 75.231339 4.5101066
36.305138 75.228401 4.5996819
37.546799 75.173637 4.6332669
38.755913 75.032928 4.6623611
40.054329 75.00811 4.7010846
-40.728203 75.252411 4.654201
-36.964947 75.259918 4.5455008
33.831413 75.253441 4.5311441
35.077538 75.275238 4.5670218
60.734962 93.879265 4.5330086
63.118141 94.533699 4.6152382
-4.4640779 -11.236289 4.9399824
-4.4487867 -9.4069796 4.8136458
-6.2027121 27.199074 4.8755226
-5.3087759 60.865417 4.9528937
-4.5537453 60.86211 4.9478951
-3.8000557 60.858631 4.943892
-3.0474851 60.858089 4.9411726
-2.295449 60.849743 4.938724
-96.979691 75.248489 4.9984922
-94.124397 75.244301 4.899642
-50.18824 75.057663 4.9532223
-47.450794 75.24662 4.8684478
-46.051579 75.240875 4.8215528
-44.687286 75.248055 4.7774305
-91.402313 75.256577 4.8067856
-48.887039 75.265182 4.9182096
-4.4950843 -13.565303 5.1201339
17.543539 14.795706 5.0345411
17.575657 15.112494 5.0682859
-1.544408 61.55426 5.0042667
-0.78299719 61.544582 5.0037041
-0.020996857 61.55521 5.0060635
-10.186734 74.999451 5.1779437
-102.96574 75.196869 5.2073555
-54.867146 75.238861 5.1306601
-53.315399 75.23526 5.0734911
-51.802666 75.238152 5.0190768
-13.155787 75.23262 5.2301497
-9.2462273 75.240303 5.1874595
-0.5954994 75.242989 5.1528602
3.2425427 75.249199 5.1651134
7.1109929 75.242249 5.1932788
-99.987968 75.275627 5.1042442
-56.476257 75.268547 5.1922193
-14.148877 75.255226 5.2455201
-12.175258 75.253784 5.2193232
-11.195951 75.256744 5.2081847
-8.2802238 75.266457 5.1813836
-7.3142095 75.26886 5.1745377
-6.3491683 75.252533 5.1673112
-1.5529834 75.257141 5.1536217
0.36291867 75.263252 5.1557918
1.3221158 75.269958 5.1587276
2.2811677 75.250221 5.1606731
4.206686 75.258041 5.1713715
5.1727977 75.260376 5.1781893
6.1421523 75.266304 5.186357
8.0880356 75.255234 5.2041588
9.0687351 75.263527 5.2157741
10.055602 75.280396 5.2291703
11.040056 75.25573 5.2404456
-4.5545034 -11.836956 5.4591508
-76.675621 61.020126 5.4907312
-75.146912 61.536396 5.434896
-75.120239 63.137135 5.4909215
-109.62273 75.2257 5.4461465
-106.15872 75.172531 5.3204541
-63.195724 75.246025 5.4534621
-61.445759 75.244522 5.3834572
-59.745907 75.249626 5.3168254
-58.061298 75.22345 5.2504416
-26.48074 75.001923 5.482337
-23.347593 75.249191 5.4209151
-22.292704 75.248489 5.3963189
-19.181322 75.243729 5.3300514
-18.161421 75.245934 5.3107581
-16.142502 75.249596 5.2757192
13.032537 75.249382 5.2697701
14.038099 75.247635 5.2862883
15.05134 75.249992 5.3043165
16.06752 75.235855 5.3222394
19.175003 75.236366 5.3868651
21.289921 75.229897 5.4358559
-25.488667 75.253204 5.4743538
-24.415207 75.25808 5.4475102
-21.251417 75.262177 5.3741832
-20.212376 75.253952 5.3515668
-17.151033 75.258141 5.2934637
-15.142982 75.253189 5.2601042
12.033717 75.253845 5.2546349
17.101906 75.261002 5.3445172
18.138624 75.263504 5.3662453
20.235403 75.257187 5.4126415
22.380438 75.276688 5.4664512
23.45673 75.251747 5.4925885
-78.804955 60.878944 5.5899296
-76.645363 65.961403 5.666204
-76.674568 67.711143 5.7325749
-66.571007 74.974693 5.5796409
-29.733315 74.845406 5.5635209
-68.735771 75.248657 5.6818862
-64.976273 75.230377 5.5250416
-34.423935 75.008301 5.7246346
-33.358234 75.245041 5.7054715
-32.189907 75.241257 5.667356
-28.776985 75.238251 5.5633354
-27.670897 75.248344 5.532649
25.659435 75.243614 5.5525661
29.06958 75.248909 5.6553111
-31.042927 75.251068 5.6320219
-29.910824 75.26265 5.5984135
24.55843 75.264183 5.5232115
26.785223 75.252571 5.5858622
27.92815 75.268738 5.6213074
30.241554 75.26297 5.6937976
31.42598 75.268944 5.733283
-5.3082952 60.859982 5.8509164
-4.5538831 60.866165 5.8460803
-3.7996547 60.851959 5.8401723
-3.0470083 60.845715 5.8363428
-2.2953088 60.848846 5.8347435
-1.5442514 61.525845 5.9091554
-0.7826879 61.556278 5.9129653
-0.021040253 61.547874 5.9136643
-76.706543 69.50399 5.8018517
-76.707253 71.313812 5.8715119
-76.706993 73.16674 5.9439883
-74.451782 74.955231 5.9154749
-70.662689 75.223831 5.7625499
-40.725147 75.246498 5.969635
-39.443111 75.235626 5.9199386
-35.741093 75.246643 5.7863007
32.59853 75.218338 5.7696218
33.821239 75.232796 5.8133273
36.313446 75.241699 5.9045992
37.555603 75.187309 5.9479241
38.756386 75.03231 5.9841766
-72.725876 75.2733 5.8533163
-38.19788 75.253662 5.8747687
-36.963799 75.257088 5.8302131
35.081478 75.281044 5.8618441
40.04604 74.993416 6.0327926
-76.680397 75.04258 6.0173893
-46.052902 75.242088 6.1853786
-44.68108 75.237694 6.1276021
-42.016827 75.236946 6.0195546
-47.464478 75.265755 6.2473307
-43.349674 75.257538 6.0743141
53.538429 93.879944 6.0847678
55.254978 93.833305 6.1377516
57.073315 93.889137 6.2004318
-51.80761 75.243881 6.4397259
-50.187557 75.055901 6.354382
-16.141947 75.246948 6.4405503
-14.146513 75.242722 6.4027314
-12.172954 75.23951 6.3705854
-10.188959 75.017021 6.3230987
2.2813742 75.249855 6.3006554
6.1404104 75.248627 6.3305712
13.032194 75.24604 6.4342117
15.050394 75.244507 6.4763341
16.068951 75.239655 6.4992013
-48.877007 75.250214 6.3080964
-18.162609 75.250504 6.4840441
-17.150234 75.254555 6.462132
-15.143653 75.256432 6.4220467
-13.162065 75.268776 6.388608
-11.195184 75.251762 6.3578768
-9.248023 75.256454 6.3345938
-8.2803907 75.268929 6.3258934
-7.3133397 75.259949 6.3164768
1.321684 75.254707 6.2968378
3.2439775 75.266014 6.3077388
4.2064137 75.251892 6.3132629
5.1721344 75.251083 6.3213401
7.1140499 75.263718 6.3427815
8.0878439 75.25174 6.3537588
9.0675135 75.253754 6.3674035
10.053639 75.267082 6.3834844
11.039452 75.250641 6.3981004
12.033739 75.252159 6.4158187
14.04155 75.260773 6.4560418
58.848846 93.831085 6.2572908
60.745228 93.891548 6.3253527
63.136154 94.555878 6.4412284
-4.5525484 60.84481 6.7445168
-3.7995038 60.850979 6.7403264
-3.0475748 60.869137 6.7390504
-2.2954407 60.866409 6.7364674
-58.070183 75.233047 6.7375717
-54.87146 75.243393 6.5830622
-53.312508 75.230667 6.5086775
-26.482136 75.005188 6.6935997
-25.483929 75.239555 6.6821308
-23.347075 75.247215 6.6179962
-21.247677 75.249161 6.5598135
-19.182625 75.248421 6.5076265
18.132048 75.23954 6.5503917
19.179264 75.248596 6.5792055
23.454002 75.242966 6.7066131
-56.477306 75.268913 6.661787
-24.415424 75.258293 6.6507125
-22.294943 75.255341 6.5888114
-20.211559 75.25074 6.533143
17.100752 75.255264 6.525558
20.238697 75.265778 6.6104207
21.300194 75.25853 6.6408529
22.374004 75.257179 6.6735291
24.559214 75.264725 6.745048
-5.3078227 60.854622 6.75214
-75.154106 61.540535 6.9769039
-1.5441219 61.547325 6.8228798
-0.78249341 61.559353 6.8249373
-0.020930193 61.54604 6.8251348
-29.734579 74.847855 6.7927604
-61.43819 75.235115 6.9066377
-59.744987 75.24765 6.8217416
-34.420681 75.001099 6.9886765
-33.359356 75.246803 6.9661646
-28.777531 75.239075 6.7923298
26.778242 75.234627 6.8198924
-63.200706 75.250443 6.9980717
-32.199352 75.261269 6.9214592
-31.04377 75.252419 6.8763375
-29.90638 75.25164 6.8339949
-27.672253 75.25132 6.7550397
25.66564 75.257423 6.7823477
27.925714 75.261749 6.8644071
29.077131 75.264008 6.9083233
30.243917 75.266541 6.9542603
-78.790466 60.868004 7.1743474
-76.676414 61.019611 7.0481906
-75.124657 63.139351 7.0483689
-66.573402 74.976143 7.1600366
-64.972961 75.225891 7.0891633
-39.443184 75.235062 7.228097
32.597519 75.214943 7.0463881
33.829842 75.247665 7.1018319
36.308949 75.232338 7.2109942
-38.196587 75.250641 7.1726103
-36.968468 75.265251 7.1193337
-35.743206 75.250137 7.0651565
31.430094 75.275887 7.0029621
35.07692 75.271309 7.1586046
-76.645294 65.960266 7.2727633
-76.672264 67.708214 7.3575406
-76.702408 69.499527 7.446085
-10.186531 74.998795 7.4684858
-106.13795 75.157799 7.4216003
-102.96583 75.19548 7.2648392
-70.650604 75.211067 7.3935909
-68.727104 75.238991 7.2902336
-44.684769 75.242645 7.4825902
-43.342709 75.245674 7.4155698
-42.01622 75.235222 7.3497515
-7.3122292 75.248283 7.4614372
4.2057409 75.241051 7.4580536
37.544464 75.166855 7.2628388
38.75742 75.032631 7.3095164
40.052177 75.001869 7.3699465
-40.73674 75.265564 7.2909865
-9.2486391 75.262405 7.4847841
-8.2791748 75.257721 7.4725995
1.3225925 75.271042 7.4415612
2.2824295 75.264435 7.4459128
3.2435813 75.257042 7.4516983
5.1737509 75.264557 7.4703503
6.1413436 75.254303 7.4804301
7.1159635 75.276237 7.4956698
-5.3084736 60.864826 7.6593614
-4.5536308 60.865173 7.6522026
-3.7996707 60.857288 7.6454129
-3.0470796 60.856316 7.6411953
-2.2953126 60.866322 7.6401324
-1.5439874 61.553951 7.7391362
-0.78249621 61.548199 7.7389011
-0.020683505 61.549057 7.7412033
-76.71611 71.320114 7.5365973
-76.713333 73.171082 7.6291857
-74.460945 74.962494 7.5924983
-109.61251 75.21788 7.5981946
-76.676964 75.038399 7.7222052
-48.874332 75.245605 7.7021837
-46.045944 75.230865 7.5514083
-21.246929 75.2463 7.7499323
-20.208956 75.241135 7.717627
-17.14887 75.248566 7.6341162
-14.147232 75.246552 7.5650363
8.0876169 75.248001 7.5068665
11.039396 75.248444 7.5595875
15.049551 75.239418 7.6519361
16.069624 75.24057 7.6797066
18.135101 75.24836 7.7412491
-72.731216 75.27726 7.5121336
-47.459229 75.257324 7.6274533
-19.184599 75.25563 7.6894016
-18.168362 75.273399 7.6633191
-16.146212 75.26635 7.6114998
-15.143464 75.25547 7.5873179
-13.161621 75.266327 7.5476408
-12.175841 75.257835 7.5286851
-11.195042 75.251083 7.5115366
9.0691328 75.26194 7.5243793
10.05474 75.2715 7.5430098
12.036473 75.263809 7.5821476
13.034885 75.25666 7.603827
14.043017 75.26535 7.6289983
17.104666 75.267723 7.7122517
-53.316833 75.235397 7.9485216
-50.187737 75.055321 7.7592626
-27.669771 75.244484 7.9802585
-26.483789 75.00914 7.9089155
-25.487391 75.248756 7.8959575
-23.3459 75.243217 7.8185802
19.179518 75.247864 7.7742658
21.295767 75.244034 7.8456526
24.553299 75.248093 7.9687471
-51.81501 75.252884 7.8647094
-24.414898 75.256348 7.8574953
-22.29418 75.252525 7.784215
20.238047 75.26226 7.8109007
22.380634 75.274269 7.8880572
23.462915 75.265373 7.927876
53.529842 93.864807 7.8094249
55.250095 93.824158 7.8782263
57.072765 93.886543 7.959548
-29.736019 74.850708 8.0260506
-58.074604 75.237366 8.2283621
-54.87233 75.243599 8.0389318
-32.192097 75.244881 8.1758518
-28.780399 75.24559 8.0259485
29.070765 75.248672 8.1621714
-56.480301 75.271667 8.1354961
-33.364429 75.256851 8.2319546
-31.044952 75.254539 8.1247559
-29.90877 75.256721 8.0750437
25.667095 75.259552 8.0151491
26.788198 75.256714 8.0620108
27.921795 75.251419 8.110796
30.242748 75.262642 8.2179508
58.860504 93.845787 8.0344248
60.746059 93.890884 8.1206274
-34.419128 74.997322 8.2568941
-61.446312 75.243225 8.4355774
32.607616 75.233337 8.3297987
-59.755295 75.258537 8.3321028
-38.197685 75.251968 8.4750175
-36.963779 75.255753 8.4106512
-35.744717 75.252457 8.3480663
31.434467 75.283356 8.27701
33.838009 75.261719 8.3949032
35.066338 75.250557 8.4577255
63.126041 94.540565 8.2682781
-5.3083072 60.863766 8.5695572
-4.5534754 60.864208 8.5615721
-3.79966 60.859573 8.5545149
-3.046814 60.85125 8.5486097
-2.2951212 60.862194 8.5475845
-76.663223 61.009277 8.6081028
-75.150208 61.536648 8.5219107
-1.5438337 61.53759 8.6563873
-0.7823984 61.544231 8.6581554
-0.020236999 61.559235 8.6630478
-75.119942 63.134777 8.6089554
-66.572151 74.973846 8.7441416
-64.971489 75.223343 8.6574135
-42.020893 75.242218 8.6852484
-39.446999 75.241104 8.5412388
-14.147162 75.246201 8.7312965
-12.174241 75.248001 8.6881123
-11.194784 75.249603 8.6694059
-10.187512 75.00676 8.6209421
-9.2465935 75.245331 8.6365299
3.2425001 75.238434 8.5984144
36.307945 75.229172 8.5219727
37.546528 75.168976 8.5840359
38.758163 75.032448 8.6390266
40.059528 75.01226 8.7119465
-63.220394 75.270836 8.5489559
-40.729095 75.251808 8.6130705
-13.161479 75.265617 8.7111712
-8.2790537 75.257393 8.6246367
-7.3134365 75.263313 8.613739
1.3220146 75.252365 8.5866489
2.2829773 75.270035 8.5948153
4.2074461 75.25798 8.6103516
5.1734977 75.259323 8.621727
6.1421428 75.258827 8.6346569
7.1148615 75.265388 8.6502991
8.0900249 75.262604 8.6665554
9.0698977 75.264717 8.6852808
10.055479 75.273796 8.706768
11.040343 75.251595 8.7260618
-78.794518 60.869663 8.7643671
-76.654358 65.96611 8.8845444
-76.689934 67.721077 8.9889908
-46.057304 75.247154 8.9250011
-43.338417 75.238068 8.7611828
-22.292154 75.245636 8.9834661
-21.243515 75.234406 8.9432144
13.03283 75.24543 8.775341
14.039797 75.249786 8.8038731
15.051566 75.245888 8.8333035
16.069256 75.237541 8.8641605
17.10005 75.249527 8.899766
-68.742348 75.25312 8.905489
-44.690109 75.250168 8.842433
-20.215275 75.263443 8.9104738
-19.18578 75.259865 8.8754768
-18.162689 75.250404 8.8417645
-17.149509 75.251137 8.8114252
-16.144987 75.260635 8.7842274
-15.143742 75.256775 8.7572327
12.036892 75.264053 8.751771
18.138493 75.258324 8.9370489
19.1868 75.269859 8.97684
-76.703255 69.499107 9.094986
-76.699081 71.304749 9.203208
-70.665344 75.224274 9.0317783
-50.195812 75.065567 9.1700802
-27.671818 75.249222 9.2114286
-26.481533 75.00264 9.1275139
-24.409798 75.241005 9.0669336
-23.344654 75.239014 9.0235062
24.553303 75.246628 9.1985273
-72.743828 75.28801 9.1764183
-48.88298 75.257027 9.1026974
-47.456394 75.252396 9.0121002
-25.488768 75.252167 9.1138887
20.238348 75.261658 9.0161638
21.298748 75.251266 9.0574036
22.379721 75.270203 9.104888
23.459509 75.254753 9.1500273
-5.3084373 60.866772 9.4854679
-4.554132 60.877251 9.478447
-3.7996769 60.862408 9.4688034
-3.0470054 60.861889 9.4636841
-2.294827 60.851204 9.4586639
-76.702347 73.160492 9.3168726
-74.465508 74.965538 9.2736883
-29.736319 74.850876 9.26371
-102.97225 75.198288 9.3270407
-76.671021 75.031998 9.4309568
-54.8741 75.244934 9.4996128
-53.314785 75.231888 9.3919983
-51.804863 75.238541 9.2913723
-32.192036 75.244156 9.4365606
-28.780865 75.246216 9.263628
25.662874 75.247704 9.2507305
26.78125 75.238846 9.3040581
27.919167 75.244011 9.3619022
-31.045549 75.255333 9.3777628
-29.910658 75.260635 9.3207855
29.081444 75.270569 9.4254122
30.239927 75.255287 9.4857597
-106.15405 75.166603 9.5294867
-58.053932 75.21199 9.7197847
-35.741695 75.245911 9.6346169
-34.421028 75.000549 9.5307407
1.3219992 75.246887 9.7379923
2.2820435 75.24955 9.7450933
32.61195 75.24041 9.6171112
33.831684 75.248352 9.6894073
-56.476543 75.266182 9.6128435
-36.966934 75.261047 9.7086096
-33.363247 75.253769 9.5010185
31.429745 75.272339 9.5534945
53.543304 93.883926 9.54179
55.2579 93.834106 9.6250191
57.065502 93.874123 9.7220306
-109.61779 75.21962 9.7555523
-61.441776 75.237206 9.967658
-59.748436 75.249725 9.8448715
-39.444683 75.236328 9.8579655
-38.189495 75.236359 9.7799034
-11.194254 75.246262 9.8319778
-10.186954 75.00293 9.7769423
3.2430811 75.243149 9.7528753
11.039815 75.246872 9.8965425
36.297585 75.209427 9.8353243
37.546249 75.167107 9.9096947
38.764172 75.040993 9.9748363
-40.736969 75.264534 9.9435225
-17.150061 75.253334 9.9938793
-16.147215 75.270714 9.9641981
-15.14699 75.272667 9.9344339
-14.149767 75.260017 9.9047031
-13.161028 75.26313 9.879467
-12.177103 75.266159 9.8563538
-9.2475491 75.254242 9.7964935
-8.279418 75.261833 9.7823601
-7.3126998 75.255959 9.7682877
4.207222 75.25235 9.7649317
5.1746135 75.267784 9.7799253
6.1438599 75.271355 9.7952166
7.1161642 75.27317 9.8122997
8.0903692 75.26281 9.8296642
9.0681276 75.251457 9.8489571
10.054163 75.264191 9.8739023
12.038838 75.271843 9.927599
13.036733 75.261604 9.9556274
14.04115 75.253883 9.9862394
35.08427 75.281937 9.7685394
58.860096 93.843376 9.8148422
60.745842 93.888763 9.9203911
40.039436 74.978622 10.052774
-64.972649 75.223572 10.230972
-42.019474 75.239143 10.024538
-23.346979 75.24575 10.235187
-22.286129 75.225883 10.185722
17.098 75.240555 10.093187
19.177788 75.239151 10.1774
-63.208553 75.257004 10.100567
-44.698746 75.262787 10.208476
-43.347164 75.251297 10.114704
-21.252031 75.262939 10.147389
-20.211634 75.25013 10.103906
-19.18438 75.254288 10.065374
-18.16507 75.259758 10.02937
15.053983 75.25396 10.020265
16.075048 75.257935 10.057169
18.139866 75.261414 10.13735
20.241358 75.269363 10.227907
63.135151 94.550865 10.102448
-66.577583 74.978394 10.334253
-26.478334 74.993629 10.35078
-47.453346 75.247169 10.40171
-46.049061 75.233994 10.299892
-25.48493 75.240997 10.334982
21.297812 75.246986 10.272908
24.552233 75.242409 10.433166
25.660088 75.239388 10.491798
-27.67968 75.268814 10.450439
-24.414309 75.253769 10.285388
22.379442 75.267914 10.327132
23.465429 75.269142 10.380974
-29.734116 74.845154 10.505819
-70.649178 75.207565 10.67107
-68.736832 75.246605 10.523328
-51.813049 75.248581 10.72671
-50.190285 75.057159 10.583683
-48.869579 75.237282 10.504068
-28.779566 75.242508 10.506026
27.915468 75.234146 10.617778
-32.198975 75.258698 10.705159
-31.048517 75.261482 10.637093
-29.913389 75.266525 10.572392
26.788912 75.255508 10.556287
29.074299 75.25351 10.688727
-74.462021 74.96125 10.95919
-34.413364 74.984413 10.807103
-54.867382 75.235634 10.964108
-53.306923 75.220863 10.839549
-35.740097 75.242149 10.926959
-33.360771 75.247971 10.775041
-10.18672 75.001579 10.93891
-7.3119988 75.249016 10.928336
32.607166 75.229614 10.907368
-72.738167 75.281593 10.843767
-9.2473669 75.253265 10.960855
-8.2785816 75.25441 10.943992
1.3225948 75.255791 10.897162
2.283052 75.263268 10.905916
3.2441235 75.254379 10.91424
4.2084494 75.26368 10.927776
5.1745219 75.264153 10.942136
6.144166 75.2715 10.959891
7.1147318 75.259712 10.976808
8.0910244 75.265175 10.99886
30.249514 75.274063 10.762997
31.438435 75.288559 10.839514
33.834572 75.25238 10.991881
-76.913261 75.245781 11.181627
-58.062916 75.221703 11.221583
-38.196705 75.248825 11.094506
-16.14209 75.247162 11.144728
-15.142286 75.249542 11.111505
-11.194499 75.248283 11.00104
11.039773 75.244743 11.073054
36.315948 75.240486 11.162087
37.552311 75.176056 11.242864
-56.482166 75.272125 11.097407
-36.968674 75.263664 11.011968
-18.163755 75.254257 11.220657
-17.150261 75.254013 11.181978
-14.149442 75.258324 11.081795
-13.161968 75.268639 11.054749
-12.17651 75.262627 11.027398
9.0692968 75.256798 11.020972
10.052634 75.25338 11.046252
12.040491 75.278152 11.109241
13.035025 75.251945 11.137986
14.040754 75.250427 11.173311
15.057544 75.266632 11.214125
35.083122 75.278419 11.080482
40.05241 74.998016 11.407156
-102.97714 75.200073 11.394655
-79.079933 75.208603 11.359031
-59.747307 75.247482 11.364058
-23.348141 75.248909 11.452461
-22.289007 75.234787 11.398078
-20.210915 75.247261 11.304511
17.100147 75.246613 11.294708
19.176823 75.234474 11.387212
38.754223 75.023117 11.312303
-21.252443 75.264 11.353839
-19.187729 75.266724 11.263965
16.076454 75.261612 11.253959
18.142277 75.268028 11.344268
20.240271 75.264488 11.443739
21.300592 75.253624 11.496118
-106.16422 75.171616 11.642802
-81.347244 75.195305 11.548904
-63.200752 75.247559 11.658149
-61.442013 75.236511 11.506151
-27.671665 75.247826 11.689171
-26.486425 75.014755 11.584977
-24.411642 75.24556 11.506696
-25.489801 75.254143 11.565885
22.381182 75.271278 11.556289
23.463469 75.26239 11.61484
24.560442 75.261986 11.677883
25.669764 75.261726 11.744053
59.318508 94.4907 11.688962
57.871731 95.049362 11.649132
56.791725 96.141808 11.683448
55.776634 97.351646 11.734968
-109.21805 74.970848 11.874059
-85.891281 74.986122 11.923552
-66.58522 74.985191 11.930977
-29.735849 74.848694 11.755473
-83.716278 75.200912 11.7511
-64.992683 75.243675 11.813982
-28.779543 75.241936 11.754955
27.86326 75.114052 11.859897
28.963112 75.008881 11.916963
30.126303 75.013008 11.996892
-29.910131 75.258308 11.827886
26.792738 75.263084 11.813691
60.89312 94.089279 11.753569
63.134838 94.548607 11.94116
-14.100187 74.997589 12.217845
32.48365 74.986076 12.161114
-88.478233 75.030411 12.15205
-68.495888 75.005798 12.104424
-13.117734 75.014656 12.189271
-12.135001 75.002388 12.157967
-11.158556 75.000275 12.131124
-10.188336 75.014465 12.109819
-9.219203 75.010338 12.087742
-8.2539845 75.012077 12.069261
-7.2906752 75.004219 12.051553
-1.5517731 75.006889 12.006305
-0.59750855 75.013367 12.008439
0.3568002 75.001427 12.009707
1.3122325 75.005974 12.016398
2.2684464 75.001648 12.023947
3.2271152 75.011681 12.036555
4.1879606 75.020988 12.051514
5.150178 75.017776 12.066706
6.1165342 75.027489 12.086745
7.0817318 75.00145 12.102833
8.0551052 75.012711 12.128234
9.0307083 75.010704 12.153802
10.013738 75.026352 12.185195
10.995731 75.008118 12.213027
11.98653 75.009834 12.247172
31.30765 75.021446 12.081161
-70.406776 74.972107 12.275434
-20.140484 74.99501 12.465007
-17.090307 74.997383 12.329065
-15.091015 74.997856 12.25226
13.982355 74.997505 12.320701
17.02944 74.990883 12.454154
36.174694 74.989288 12.443906
-91.073517 75.006668 12.379133
-72.476746 75.034866 12.472155
-19.117706 75.001381 12.417864
-18.103563 75.012222 12.374428
-16.088886 75.003784 12.290428
12.982669 75.009399 12.283626
14.993943 75.008095 12.364717
16.008577 75.00174 12.408421
33.703201 75.002312 12.254226
34.944286 75.023087 12.352118
-74.466278 74.964035 12.652176
-23.266323 74.997864 12.628408
-22.213772 74.992241 12.57002
19.104242 74.998253 12.559909
-93.793922 75.000313 12.620982
-24.329733 75.005859 12.690386
-21.175007 75.001213 12.517441
18.069937 75.020134 12.51033
20.162378 75.023315 12.621387
21.217176 75.007477 12.678246
22.295895 75.030891 12.745766
37.462334 75.020721 12.552028
38.764874 75.039322 12.662125
-96.62867 74.99707 12.875843
-76.636452 74.999069 12.860975
23.371382 75.014191 12.808884
24.468885 75.025543 12.880732
25.569775 75.014122 12.9516
40.059273 75.007599 12.76711
-78.801369 74.967339 13.066193
-6.3298883 74.996658 13.205217
-5.3718286 74.996452 13.19278
-4.4151163 74.990585 13.181931
-1.55159 74.999855 13.17087
2.2680075 74.989777 13.189336
3.2258782 74.990829 13.201406
27.812855 74.998039 13.105226
28.955622 74.991035 13.187724
-99.636185 75.030975 13.15133
-8.2539558 75.012627 13.241367
-7.2915325 75.015259 13.224027
-3.4607019 75.016823 13.180128
-2.505754 75.003746 13.173246
-0.59734774 75.011238 13.174195
0.35737658 75.014603 13.178627
1.3124931 75.006989 13.183583
4.1867795 75.004135 13.218628
5.152123 75.034523 13.241982
26.684971 75.006866 13.026772
-102.58808 74.942307 13.416724
-81.05687 74.950996 13.284122
7.0805745 74.99015 13.276089
10.992886 74.991043 13.395918
32.484688 74.986679 13.461813
-16.08889 75.003716 13.48388
-15.093117 75.008125 13.444092
-14.101007 75.001938 13.405134
-13.116585 75.008163 13.371606
-12.134858 75.001732 13.338431
-11.160576 75.014542 13.311965
-10.186615 75.001686 13.283204
-9.2187738 75.00724 13.260915
6.116498 75.024643 13.260104
8.055068 75.010246 13.305743
9.0319691 75.016594 13.335488
10.011377 75.010719 13.365648
11.98815 75.015976 13.438078
12.983895 75.013237 13.477643
30.131247 75.02198 13.281575
31.305237 75.015114 13.371859
59.320438 94.491592 13.49572
57.861351 95.032356 13.446816
56.799831 96.152153 13.490528
-83.403351 74.945229 13.51453
-17.088741 74.990501 13.524895
-105.93085 75.021133 13.731191
-18.10368 75.012482 13.576117
13.985682 75.010063 13.520123
14.994581 75.008965 13.56608
16.010588 75.007729 13.615111
17.038923 75.023338 13.670754
18.073355 75.030167 13.727838
33.705441 75.005127 13.565398
34.944202 75.021515 13.672931
60.90517 94.103996 13.572646
55.777523 97.351135 13.548213
-85.887276 74.981705 13.764725
19.102226 74.990158 13.778535
21.210257 74.985634 13.905573
36.171478 74.982193 13.77346
20.164158 75.027222 13.848512
22.292143 75.018883 13.981733
37.45863 75.012947 13.893066
63.139156 94.552513 13.787687
-109.2153 74.967644 14.035071
24.458542 74.997505 14.126483
40.053047 74.996185 14.130496
-88.499809 75.045662 14.032794
23.368944 75.006142 14.051853
38.762043 75.033218 14.015345
-2.5092523 75.249641 14.399997
1.3229501 75.248543 14.410414
26.785826 75.243813 14.343543
-91.403206 75.250732 14.34422
-9.2467737 75.250038 14.495095
-8.2788324 75.259445 14.474602
-7.3132949 75.26741 14.456802
-6.349628 75.271278 14.441109
-5.3868842 75.258591 14.424827
-4.4262886 75.250267 14.412448
-3.4675565 75.256577 14.406177
-1.551564 75.26194 14.400898
-0.59371054 75.262009 14.402106
0.36425495 75.252457 14.404182
2.2835186 75.259087 14.422715
3.2450645 75.257149 14.435289
4.2085352 75.255524 14.450901
5.176302 75.273674 14.473783
6.1459985 75.279945 14.497114
25.66925 75.257492 14.262092
27.925478 75.252525 14.433766
-11.194582 75.249786 14.549246
8.0896235 75.248764 14.543426
11.041048 75.245758 14.645625
12.035507 75.247955 14.686739
-94.154045 75.259033 14.627835
-16.142878 75.250435 14.739681
-15.144336 75.25946 14.697189
-14.151039 75.266846 14.657578
-13.161463 75.266052 14.619378
-12.174992 75.253708 14.581828
-10.22023 75.260414 14.52292
7.114409 75.25016 14.515665
9.0730343 75.274094 14.580093
10.053973 75.255104 14.610233
13.039478 75.267006 14.734807
29.079182 75.259842 14.527793
30.244648 75.259453 14.624363
31.441074 75.289597 14.731978
-96.989098 75.248238 14.921702
14.036914 75.228653 14.773514
15.052313 75.240364 14.826601
32.612354 75.235466 14.825473
-18.166679 75.265366 14.841878
-17.150618 75.255051 14.788467
16.077976 75.262383 14.885393
17.106791 75.265587 14.943482
33.83601 75.250809 14.9389
19.181631 75.245232 15.064283
21.295549 75.234192 15.201774
36.318504 75.240715 15.171082
-100.00598 75.280846 15.240815
18.141693 75.261185 15.003393
20.240757 75.261261 15.136038
35.078033 75.264809 15.05683
37.553135 75.17318 15.28039
38.756409 75.022461 15.37551
22.38199 75.268959 15.285396
23.466948 75.267159 15.364617
24.561985 75.261444 15.446943
60.898827 94.093452 15.395706
59.313244 94.479561 15.308067
57.872414 95.046661 15.25712
56.791412 96.137604 15.30154
55.773811 97.343483 15.368077
-102.97462 75.195511 15.549407
-11.193181 75.24044 15.746051
-3.467149 75.247864 15.59141
1.3229785 75.243942 15.597018
40.056915 75.000961 15.505516
-10.221468 75.27037 15.722096
-9.2467327 75.250305 15.68971
-8.2799215 75.271095 15.670196
-7.3120728 75.254501 15.645188
-6.3481989 75.253113 15.626984
-5.387032 75.263374 15.614723
-4.4264421 75.25705 15.6018
-2.5093267 75.266136 15.590606
-1.5513761 75.252792 15.585617
-0.59342724 75.268295 15.590532
0.36479637 75.264343 15.5941
2.2848716 75.278763 15.616009
3.245101 75.254135 15.62434
4.21065 75.27713 15.647015
5.1759648 75.267532 15.665312
6.1457 75.274765 15.690812
7.116549 75.264389 15.715466
8.0922852 75.265091 15.746037
25.669149 75.255753 15.533368
26.791595 75.255951 15.625368
27.926867 75.254196 15.721241
63.140244 94.552109 15.64162
-16.141592 75.244438 15.952957
-14.146793 75.244392 15.86019
-13.156821 75.239487 15.817883
-12.173473 75.244392 15.781323
-106.33717 75.279076 15.915101
-15.143097 75.253326 15.906934
9.0730352 75.271973 15.781411
10.058134 75.277115 15.819761
11.045001 75.264854 15.857416
12.041155 75.273956 15.903598
13.041207 75.273132 15.950939
29.08329 75.267349 15.825087
30.253063 75.275711 15.932413
-17.148165 75.244377 16.004646
32.611607 75.232552 16.146988
-18.166336 75.263779 16.064631
14.046781 75.26931 16.001125
15.057803 75.260803 16.053802
16.078623 75.26313 16.112753
17.103725 75.252914 16.172419
18.14456 75.269325 16.242338
31.444466 75.295036 16.047108
-109.62115 75.217133 16.265503
19.182507 75.246468 16.30661
20.245907 75.275528 16.387503
21.306808 75.26564 16.46294
33.838409 75.253883 16.272036
35.089981 75.285217 16.404791
36.311779 75.227379 16.520994
37.549553 75.165596 16.641518
22.379692 75.260979 16.543785
23.471224 75.277069 16.634016
24.561941 75.259811 16.720297
-96.985855 75.244583 16.926844
26.789026 75.248383 16.912014
38.771564 75.046104 16.753008
40.070724 75.021645 16.893972
-12.176955 75.266449 16.997938
-11.195836 75.259102 16.959093
-10.22028 75.261719 16.926382
-9.2485237 75.266487 16.897787
-8.2792768 75.26561 16.871309
-7.3120494 75.255417 16.846001
-6.3488955 75.264359 16.829
-5.3863463 75.253746 16.810564
-4.4267173 75.266647 16.801485
-3.4673004 75.258476 16.790558
-2.5091684 75.266914 16.787237
-1.5511948 75.255638 16.782396
-0.59332532 75.261192 16.7852
0.36482015 75.257645 16.789158
1.3239168 75.260773 16.79822
2.2837627 75.254982 16.808485
3.2454484 75.255486 16.823784
4.2086215 75.250313 16.841124
5.1759958 75.265015 16.866957
6.1446643 75.263115 16.892126
7.1166406 75.262688 16.921204
8.0913658 75.256416 16.952377
9.0749273 75.281776 16.995173
25.67165 75.260399 16.815466
-17.147249 75.240295 17.231754
14.038832 75.233315 17.220121
-16.142925 75.250427 17.178686
-15.145931 75.267181 17.131138
-14.149763 75.260132 17.081278
-13.158963 75.251923 17.034868
10.057686 75.272484 17.032824
11.046212 75.269356 17.075722
12.040254 75.267593 17.122694
13.036922 75.251587 17.16979
27.927036 75.253098 17.017471
29.085417 75.270508 17.131014
30.25466 75.277603 17.246914
60.896187 94.087967 17.228336
59.31485 94.479965 17.131329
57.861805 95.029327 17.070709
56.78672 96.128662 17.121984
55.782536 97.355133 17.200338
15.053259 75.240707 17.280941
16.072481 75.238075 17.34314
17.103378 75.249992 17.413149
32.618301 75.244194 17.481836
-100.02316 75.2911 17.292583
18.139584 75.250732 17.484371
31.432699 75.269638 17.364044
-102.97328 75.193176 17.639557
19.187883 75.262215 17.562597
20.245167 75.271645 17.644583
21.303436 75.254173 17.723829
33.852509 75.279114 17.62085
63.143356 94.554382 17.505226
-1.5508583 74.999916 17.919945
3.2274139 74.998291 17.963804
36.171494 74.977882 17.817106
-105.92654 75.015404 17.984093
-7.2911015 75.014961 17.991936
-6.3307219 75.01458 17.971285
-5.3715343 75.000275 17.95059
-4.4150372 75.001808 17.937859
-3.4604528 75.029533 17.935848
-2.5051019 75.005577 17.923603
-0.5966298 75.005943 17.923084
0.3581447 75.012123 17.929934
1.3137586 75.015739 17.939758
2.2700241 75.008583 17.950361
4.1895666 75.024315 17.990751
22.365078 75.218483 17.802643
23.37731 75.023956 17.843426
24.462368 75.002785 17.934946
37.467457 75.023712 17.97608
35.083263 75.271454 17.754316
-13.113864 74.992958 18.188583
-9.2168398 74.99308 18.038328
-8.2520342 74.997108 18.011393
5.1487699 74.989754 18.005074
8.0541668 74.994965 18.100044
25.559387 74.982574 18.031439
-14.103646 75.016014 18.242205
-12.136582 75.013359 18.150766
-11.161733 75.023819 18.114115
-10.186577 75.00325 18.072897
6.1156263 75.006752 18.037067
7.0853004 75.017204 18.071081
9.033536 75.017944 18.145134
10.015153 75.024399 18.189642
10.996095 75.000305 18.229738
26.688631 75.009567 18.145617
38.75843 75.022896 18.128761
27.815712 74.998611 18.254519
40.054607 74.994362 18.280237
-17.094482 75.014404 18.407932
-16.089329 75.005249 18.34594
-15.096587 75.024963 18.295982
11.991256 75.023743 18.286818
12.985056 75.01123 18.338091
13.988783 75.016273 18.398283
14.997238 75.012726 18.460268
28.96422 75.003967 18.373051
30.126717 75.006584 18.496164
16.013966 75.013741 18.527752
17.040493 75.022293 18.601643
18.071417 75.017021 18.676067
31.316072 75.031281 18.630936
21.214901 74.992973 18.924139
33.704971 74.998421 18.894585
19.108265 75.003235 18.75256
20.161404 75.012398 18.840067
32.496429 75.003883 18.756792
59.330925 94.500893 18.969175
57.881573 95.05629 18.903248
56.801399 96.148888 18.958401
24.461182 74.998184 19.223368
22.30267 75.042137 19.032492
23.379286 75.027695 19.127628
34.951439 75.028938 19.048641
36.186607 75.003143 19.192837
60.916157 94.113533 19.077747
55.782829 97.353668 19.040369
25.574989 75.019432 19.338854
26.685806 75.001373 19.448195
37.455112 75.001137 19.350248
63.148849 94.559822 19.379917
27.815815 74.997337 19.566986
28.966339 75.007088 19.695379
38.77277 75.045166 19.527782
40.062744 75.005936 19.687847
30.244253 75.252693 19.899654
32.612511 75.229897 20.174086
31.44536 75.292381 20.049154
33.840137 75.252731 20.330933
35.090153 75.281113 20.496056
36.313747 75.22644 20.642382
57.869434 95.036705 20.736948
37.58506 75.221924 20.810947
38.778236 75.052734 20.934978
60.92218 94.119942 20.934855
59.323215 94.488098 20.810976
56.793343 96.134842 20.79874
55.778854 97.345566 20.890018
40.0718 75.018959 21.10836
63.142097 94.54892 21.262262
59.323013 94.485916 22.667379
57.866264 95.030174 22.585533
56.812534 96.161835 22.661425
60.906109 94.095963 22.7966
55.784969 97.353149 22.755743
63.153973 94.562851 23.163433
