# .PCD v0.7 - Point Cloud Data file format
VERSION 0.7
FIELDS x y z
SIZE 4 4 4
TYPE F F F
COUNT 1 1 1
WIDTH 1539
HEIGHT 1
VIEWPOINT 0 0 0 1 0 0 0
POINTS 1539
DATA ascii
0.14126216 -7.8944573 1.8322351
0.1640669 -9.1689034 2.2919116
0.23542783 -7.3078938 -0.55680573
0.23261657 -7.2206297 -0.42757368
0.22955053 -7.1254568 -0.30121216
0.22751293 -7.0622082 -0.17905492
0.22562051 -7.0034657 -0.059177261
0.22471833 -6.9754615 0.058940634
0.22396955 -6.9522185 0.17626624
0.22304226 -6.9234347 0.29267213
0.22333354 -6.932476 0.41051051
0.22347628 -6.9369068 0.52853936
0.22469658 -6.9747863 0.65014005
0.22627188 -7.023685 0.77462178
0.22871584 -7.0995474 0.90465969
0.23098339 -7.1699347 1.0370362
0.23531154 -7.3042841 1.1828034
0.24101254 -7.4812484 1.3415653
0.24814697 -7.7027078 1.5160486
0.26171452 -8.1238565 1.7420261
0.28754023 -8.9255095 2.0722764
0.35494137 -7.6248708 -0.58128452
0.34974897 -7.5133276 -0.44515678
0.34563231 -7.4248929 -0.31404707
0.34216273 -7.3503594 -0.18646576
0.34001076 -7.304131 -0.061752591
0.33821288 -7.2655087 0.061426062
0.33724141 -7.2446394 0.18378383
0.33665103 -7.2319565 0.30588654
0.33694085 -7.238183 0.42885476
0.33779809 -7.256598 0.55320913
0.34000644 -7.304038 0.68121445
0.34339333 -7.3767948 0.81402397
0.34692803 -7.4527273 0.95019913
0.35210574 -7.5639558 1.094643
0.36006638 -7.7349668 1.2532512
0.3705419 -7.9600024 1.4282219
0.38818169 -8.3389406 1.6421976
0.41992316 -9.020813 1.9354541
0.48443165 -7.9539528 -0.60683864
0.47671252 -7.8272114 -0.46411082
0.47088078 -7.7314591 -0.32726529
0.46623263 -7.6551404 -0.1943469
0.46312594 -7.6041312 -0.064338394
0.46180564 -7.5824528 0.064154975
0.46048898 -7.5608344 0.19195269
0.46003273 -7.5533438 0.31972584
0.46132541 -7.5745678 0.44913045
0.46220106 -7.5889454 0.57899076
0.46659133 -7.6610298 0.7150591
0.47107339 -7.7346215 0.85416639
0.47860679 -7.8583136 1.0026808
0.48800197 -8.0125742 1.1604583
0.50125945 -8.2302504 1.334525
0.52349019 -8.5952606 1.5433893
0.55964607 -9.1889095 1.8109748
0.6261763 -8.317565 -0.63519877
0.61516422 -8.1712904 -0.48498526
0.6082589 -8.079567 -0.34233382
0.60245323 -8.002449 -0.20336239
0.59715134 -7.9320235 -0.067178123
0.59519917 -7.9060926 0.066958509
0.59489638 -7.902071 0.20081152
0.59509706 -7.904736 0.33492622
0.59653604 -7.9238505 0.47029909
0.6008358 -7.9809647 0.6094932
0.60571396 -8.0457621 0.75170112
0.61370975 -8.1519699 0.90113378
0.62582338 -8.3128777 1.061715
0.64159364 -8.5223551 1.2354931
0.66627747 -8.8502331 1.4364536
0.71040064 -9.436326 1.6960655
0.77977157 -8.6937141 -0.66470897
0.7667411 -8.5484371 -0.50796914
0.75642788 -8.4334545 -0.3577503
0.74980599 -8.3596268 -0.21269011
0.74508315 -8.3069715 -0.070436746
0.74209303 -8.273634 0.070154071
0.74057168 -8.2566729 0.21007071
0.74295336 -8.283226 0.35137752
0.74594098 -8.316535 0.49418896
0.75302577 -8.395524 0.64190978
0.76161605 -8.4912977 0.79426384
0.77404827 -8.6299047 0.95509243
0.79413021 -8.8537998 1.1321369
0.82022834 -9.1447687 1.327291
0.868958 -9.6880589 1.5742959
1.0009633 -11.159793 2.0082073
0.95040786 -9.1261749 -0.69874281
0.93549591 -8.9829845 -0.53453195
0.92305672 -8.8635387 -0.37651652
0.91408783 -8.7774162 -0.22362973
0.90858585 -8.7245836 -0.07408046
0.90573639 -8.6972227 0.073848136
0.90603942 -8.7001324 0.22166069
0.90883201 -8.7269478 0.37071422
0.91592479 -8.7950554 0.52334923
0.92467296 -8.8790588 0.67982244
0.93967044 -9.0230703 0.84517658
0.95904142 -9.2090769 1.0206054
0.99339634 -9.5389671 1.2214425
1.0416875 -10.002676 1.4538246
1.1676321 -11.212044 1.8244702
1.1409104 -9.6172905 -0.73751974
1.1208028 -9.447794 -0.56308728
1.1070311 -9.3317051 -0.39703631
1.096985 -9.2470207 -0.23597012
1.0923508 -9.2079582 -0.078309529
1.0884866 -9.1753836 0.078032501
1.0900121 -9.1882439 0.2344702
1.0945497 -9.2264929 0.39255986
1.1039019 -9.3053265 0.5545963
1.120958 -9.4491014 0.72462183
1.1428592 -9.6337185 0.90381467
1.1797119 -9.9443674 1.1038531
1.2381973 -10.437368 1.338613
1.3471733 -11.355981 1.653152
1.3560966 -10.183142 -0.78232145
1.3308328 -9.9934311 -0.59668142
1.3175907 -9.8939943 -0.42171922
1.3041972 -9.7934198 -0.25036412
1.2986629 -9.7518625 -0.08308477
1.297429 -9.7425966 0.083005823
1.3004678 -9.7654152 0.2496482
1.3102751 -9.8390598 0.41937771
1.327857 -9.9710855 0.59534723
1.349785 -10.135746 0.77868026
1.3924092 -10.455818 0.98271149
1.4552126 -10.927418 1.2151622
1.5828011 -11.8855 1.5270879
1.5932816 -10.782474 -0.83003223
1.5600793 -10.557778 -0.63164568
1.5403129 -10.424009 -0.44520459
1.5315998 -10.365043 -0.26551065
1.5236105 -10.310976 -0.088025145
1.5266922 -10.331832 0.088203184
1.5350767 -10.388574 0.2661134
1.5493165 -10.484941 0.44780695
1.5739081 -10.651363 0.63724458
1.6152568 -10.93119 0.84148031
1.6816684 -11.380628 1.0717841
1.809096 -12.242989 1.3641974
1.861861 -11.463047 -0.8843835
1.827719 -11.252843 -0.67472571
1.807478 -11.128223 -0.4763374
1.7918037 -11.03172 -0.28321618
1.787315 -11.004085 -0.09415099
1.7914604 -11.029607 0.094369359
1.804695 -11.111089 0.28525382
1.8306404 -11.270829 0.48244157
1.8742647 -11.539413 0.6919086
1.9506559 -12.009737 0.92656112
2.0805271 -12.809323 1.2090139
2.1653018 -12.223111 -0.94531739
2.1267791 -12.005651 -0.72161579
2.0994508 -11.851382 -0.50852603
2.0896487 -11.79605 -0.30357552
2.0857027 -11.773774 -0.10098153
2.099577 -11.852096 0.10165329
2.1227243 -11.982761 0.3083806
2.1652198 -12.222649 0.52445656
2.2410598 -12.650764 0.76039118
2.3691154 -13.373637 1.0342973
2.7621305 -15.592204 1.4752579
2.5255718 -13.15756 -1.0202776
2.4810338 -12.925529 -0.77896106
2.4560108 -12.795166 -0.55047446
2.440104 -12.712296 -0.32802069
2.4426351 -12.725482 -0.10943282
2.4647388 -12.840636 0.1104231
2.5111132 -13.082235 0.33756638
2.5941806 -13.514994 0.58144295
2.7383816 -14.266243 0.85975957
3.1098742 -16.201622 1.2563235
2.9486051 -14.256174 -1.1086266
2.8875463 -13.960961 -0.84376603
2.8597903 -13.826764 -0.59655589
2.8487978 -13.773617 -0.35642204
2.8614583 -13.834828 -0.11931264
5.3228002 -25.73514 0.22194186
2.9927471 -14.469595 0.37443197
3.1424718 -15.193497 0.6555236
3.4823868 -16.836948 1.0175835
3.436039 -15.491599 -1.2083998
3.3683431 -15.186388 -0.92064738
3.3381145 -15.0501 -0.65133148
3.3378758 -15.049025 -0.39062226
3.3718705 -15.202291 -0.1315085
3.4508247 -15.558263 0.13458785
3.6066518 -16.260818 0.42207637
3.9366136 -17.748472 0.76811039
4.0337887 -17.029863 -1.3327571
3.9629533 -16.73081 -1.0176097
3.9298811 -16.591187 -0.72038651
3.9506822 -16.679005 -0.43435439
4.0260782 -16.997313 -0.14751986
4.1750927 -17.626421 0.1529799
4.539422 -19.164549 0.49908289
4.7654676 -18.90807 -1.4849316
4.6753726 -18.550598 -1.132248
4.6639805 -18.505396 -0.80631721
4.7220945 -18.735977 -0.48963204
4.8785453 -19.356731 -0.16858606
5.2750812 -20.930077 0.182289
5.7707534 -21.588139 -1.7017213
5.6670375 -21.200142 -1.2987826
5.6964626 -21.310219 -0.93198621
14.484876 -27.143023 -8.2437496
16.286743 -30.519522 -8.6457653
18.59297 -34.841129 -9.1642389
21.671761 -40.610435 -9.8655119
25.722101 -48.200314 -10.747541
31.995771 -59.956467 -12.180449
41.660866 -78.067764 -14.321753
14.933356 -27.0443 -8.2778358
16.753473 -30.34053 -8.6621046
19.207935 -34.785561 -9.220993
22.331669 -40.442638 -9.9013853
26.646666 -48.257099 -10.844137
33.039822 -59.835098 -12.250612
43.477135 -78.737068 -14.557212
15.33222 -26.851158 -8.2850428
17.252705 -30.214481 -8.6957293
19.724247 -34.54287 -9.2305536
23.012722 -40.301945 -9.9465647
27.63257 -48.392635 -10.96235
34.163471 -59.830132 -12.348448
45.434795 -79.569489 -14.829829
15.819265 -26.805748 -8.3400421
17.823002 -30.20108 -8.7643948
20.29167 -34.384235 -9.2648268
23.719551 -40.192783 -10.00239
28.558659 -48.392651 -11.053821
35.443653 -60.059273 -12.499167
46.711201 -79.152138 -14.875132
15.511255 13.291101 -0.86304599
15.339255 13.52921 -0.86416209
15.471348 13.645715 -0.52276325
15.611331 13.76918 -0.1757976
15.211387 13.808482 -0.86800426
15.315697 13.903172 -0.52417433
15.441328 14.017217 -0.17612451
15.569584 14.133643 0.17758739
15.094543 14.101699 -0.87276524
15.211114 14.210601 -0.52750236
15.307625 14.300764 -0.17691611
15.416242 14.402237 0.17817143
15.53988 14.517743 0.53890359
15.127254 14.543253 -0.53175861
15.213436 14.626108 -0.17822881
15.286184 14.696048 0.17908108
15.392397 14.79816 0.54107904
15.499453 14.901083 0.90841615
15.389775 15.225436 0.91466707
71.762054 75.180122 -6.1511965
67.971489 73.280777 -5.9155841
64.529991 71.598984 -5.7046762
61.297745 70.001778 -5.506948
58.384693 68.632629 -5.3329506
56.719193 68.641594 -5.2700243
79.798805 96.572556 -5.2930112
54.088718 67.399902 -5.1147285
76.655869 95.520805 -5.1746998
51.653625 66.28717 -4.9736724
71.829514 92.178925 -4.9374552
48.544857 64.171257 -4.7622871
67.489418 89.214005 -4.7264156
46.469379 63.290344 -4.6470752
63.534031 86.532051 -4.535687
44.53513 62.512039 -4.5426583
59.988369 84.203079 -4.3681569
42.697453 61.785053 -4.4449625
57.803341 83.643921 -4.2957892
40.964474 61.129837 -4.355196
54.664112 81.573318 -4.1488376
38.798717 59.72908 -4.2154016
51.777508 79.709412 -4.015934
37.288452 59.243237 -4.1430206
49.118824 78.039124 -3.8959608
35.411934 58.089745 -4.0264955
45.921207 75.329155 -3.7274747
66.770515 109.53036 -3.250664
2.0183387 3.4200752 -1.0640842
2.2099595 3.7447765 -1.0867393
2.5675225 4.3506675 -1.1722866
2.7154863 4.6013918 -1.1451041
11.931903 20.218613 -4.6183233
12.990582 22.012543 -4.5811152
14.250668 24.147758 -4.5381098
15.78299 26.744278 -4.4892406
17.679651 29.958174 -4.4303007
20.096083 34.052814 -4.3585396
23.28334 39.453625 -4.2680178
27.658504 46.86734 -4.1442413
34.062908 57.719601 -3.9666374
43.670013 73.998848 -3.6303458
62.136848 105.2909 -3.0981317
1.9738191 3.4567289 -1.0665889
2.1670089 3.7950604 -1.0922185
2.5118289 4.3989401 -1.1754858
10.659242 18.667419 -4.6071401
11.552238 20.231316 -4.5829859
12.554605 21.986752 -4.5378847
13.81698 24.197535 -4.5098352
15.268254 26.739136 -4.4512372
17.073204 29.900127 -4.385128
19.36009 33.905128 -4.3037271
22.34444 39.131588 -4.1981521
26.429087 46.284988 -4.0588808
32.341091 56.638622 -3.8601418
41.657574 72.954475 -3.5494936
58.50095 102.45211 -2.9896567
1.9349293 3.5041559 -1.0725672
2.1323647 3.8617113 -1.1025037
2.4650595 4.4642215 -1.1833806
10.318136 18.68614 -4.574842
11.153283 20.198589 -4.5389438
12.143768 21.992359 -4.5027061
13.312211 24.108406 -4.4572549
14.74465 26.702553 -4.4095631
16.514275 29.907341 -4.3510737
18.617531 33.716339 -4.2455029
21.541477 39.011604 -4.1517758
25.30747 45.831814 -3.9869666
31.000961 56.142723 -3.7957137
39.438885 71.423798 -3.4472022
54.184319 98.127769 -2.8405454
1.8976691 3.5560179 -1.0800167
2.0896196 3.9157116 -1.1092678
9.2789707 17.387745 -4.5734873
9.9917517 18.723417 -4.5484881
10.773577 20.188469 -4.5015554
11.745442 22.009634 -4.4713645
12.833673 24.048855 -4.4118304
14.225201 26.656422 -4.3678741
15.862994 29.725462 -4.2911406
17.92741 33.593945 -4.1973505
20.603514 38.608662 -4.0770903
24.231585 45.407257 -3.9194603
29.382704 55.059872 -3.6936917
37.344418 69.979225 -3.3513396
51.214226 95.969681 -2.756572
28.166183 54.649197 -3.6387229
35.368095 68.622643 -3.2617941
48.434212 93.974068 -2.6790638
26.738037 53.753788 -3.5532575
33.543129 67.434654 -3.182179
45.018383 90.504349 -2.5615149
25.37678 52.902672 -3.4726305
31.819208 66.33313 -3.1083887
42.66222 88.937424 -2.4996278
24.350597 52.683983 -3.4350445
30.185535 65.308228 -3.0398037
39.694489 85.881424 -2.3975232
23.10557 51.929157 -3.3639214
28.632153 64.350006 -2.9758224
37.650387 84.618248 -2.3469748
21.926334 51.241081 -3.2986801
27.171543 63.498947 -2.9181817
35.065937 81.947868 -2.2587566
50.737549 118.57188 -1.089205
20.802275 50.604671 -3.2382112
25.770615 62.690907 -2.863802
33.266426 80.925606 -2.2172279
46.897015 114.08407 -1.0417068
19.699991 49.944218 -3.1775794
24.068497 61.019432 -2.7714255
30.943125 78.448265 -2.1369991
43.308098 109.79645 -0.99679404
18.676159 49.408829 -3.1261888
22.832121 60.403656 -2.7283351
29.360504 77.674858 -2.1042676
41.116955 108.77721 -0.98209733
15.095754 41.733044 -3.3796163
17.672159 48.855656 -3.0748689
21.612551 59.749088 -2.6845217
27.310942 75.502602 -2.034621
38.013306 105.08988 -0.94379705
14.2764 41.306763 -3.3282061
16.712887 48.3564 -3.0280807
20.165443 58.345882 -2.6082401
25.858698 74.81852 -2.006007
35.161633 101.73526 -0.90905666
13.492603 40.927036 -3.2817135
15.799747 47.925285 -2.9866166
19.070236 57.845638 -2.5734119
24.043552 72.931168 -1.9459774
32.524635 98.656784 -0.87729919
12.721503 40.529835 -3.2349319
14.908945 47.498871 -2.9464431
17.99958 57.345425 -2.5394368
22.315584 71.095909 -1.8882923
30.039583 95.704041 -0.84713185
33.416985 106.4642 29.899197
11.982854 40.180355 -3.1930211
14.048172 47.105686 -2.9092817
16.736452 56.119904 -2.4743049
21.055628 70.60276 -1.8669986
27.732224 92.990417 -0.81951439
32.293591 108.28538 14.391331
31.854664 106.81359 16.113199
31.412086 105.32956 17.789417
31.289396 104.91816 19.62298
31.189077 104.58178 21.468531
31.09314 104.26009 23.317772
30.998228 103.94183 25.169905
30.898497 103.60742 27.021135
30.797327 103.26818 28.874876
11.259451 39.827358 -3.1518397
13.051105 46.164864 -2.8393478
15.73914 55.67308 -2.4444218
19.477562 68.896774 -1.8143278
25.552135 90.383987 -0.79323977
30.482986 107.82558 0.94631296
30.086933 106.42464 2.8025868
29.964649 105.9921 4.6537642
29.865639 105.64188 6.4974527
29.779058 105.33562 8.3360033
29.685545 105.00484 10.166149
29.599247 104.69958 11.993358
29.512177 104.39159 13.816284
29.419003 104.06202 15.632992
29.331593 103.75282 17.450424
29.244261 103.44392 19.266987
29.155689 103.13061 21.082808
29.111479 102.97424 22.93465
29.070932 102.83081 24.797564
29.030079 102.6863 26.669804
28.984253 102.5242 28.547926
10.562223 39.512817 -3.1146643
12.250896 45.830074 -2.8076839
14.582889 54.553955 -2.3858755
18.005962 67.359528 -1.7668779
23.528904 88.020615 -0.76946354
28.108074 105.15108 0.91921568
28.025751 104.84312 2.7500935
27.941278 104.52711 4.5714135
27.800953 104.00216 6.3714757
27.748129 103.80454 8.1825686
27.688606 103.58187 9.9889898
27.729172 103.73363 11.836029
27.69273 103.5973 13.657299
27.650375 103.43886 15.478333
27.611067 103.2918 17.30464
27.567684 103.12951 19.132973
27.531832 102.99539 20.972456
27.488365 102.83278 22.813179
27.447229 102.67889 24.663666
27.405413 102.52246 26.522654
27.363195 102.36452 28.391497
9.8792276 39.198067 -3.0783918
11.461323 45.475391 -2.7756207
13.648814 54.154755 -2.3596313
16.869234 66.932503 -1.7491641
22.078316 87.600708 -0.76295203
26.204456 103.9721 0.90553749
26.148909 103.7517 2.7113695
26.094944 103.53758 4.5113401
26.037659 103.3103 6.3056121
25.985847 103.10473 8.0972548
25.934494 102.90096 9.8865156
26.104172 103.5742 11.774
26.063681 103.41354 13.582502
26.026363 103.26548 15.39507
25.987904 103.11288 17.210583
25.948633 102.95707 19.030127
25.933775 102.89812 20.874924
25.918922 102.83919 22.729967
25.905273 102.78503 24.597574
25.898624 102.75865 26.485144
25.875618 102.66736 28.36986
9.2188292 38.920086 -3.045886
10.585494 44.689877 -2.7181501
12.580937 53.11425 -2.3062117
15.517755 65.512909 -1.7060863
20.233501 85.421867 -0.74137735
24.467804 103.29826 0.89652669
24.418629 103.09066 2.6846855
24.369152 102.88177 4.4671092
24.323044 102.68712 6.2456875
24.270557 102.46553 8.0189524
24.223917 102.26862 9.7914448
24.581196 103.77699 11.755852
24.568533 103.72352 13.575636
24.555262 103.6675 15.401027
24.540951 103.60707 17.232674
24.531582 103.56753 19.076103
24.515696 103.50046 20.92379
24.511158 103.4813 22.792011
24.493591 103.40714 24.660025
24.486734 103.37818 26.551767
24.465054 103.28666 28.441311
8.4905281 38.280083 -2.9859827
9.8432188 44.378777 -2.6903832
11.711469 52.801903 -2.2851369
14.217932 64.102448 -1.6638848
18.811655 84.813545 -0.73368561
22.764782 102.63646 0.88786399
22.722404 102.4454 2.6591396
22.673626 102.22548 4.4240685
22.628578 102.02238 6.1849227
22.58354 101.81932 7.9422688
22.536896 101.60902 9.6964159
23.156675 104.40334 11.788051
23.148495 104.36646 13.615026
23.132429 104.29403 15.443335
23.121626 104.24532 17.282015
23.106953 104.17916 19.125883
23.119797 104.23707 21.003653
23.134489 104.30331 22.897783
23.15477 104.39474 24.813967
23.171535 104.47034 26.744354
17.326876 78.119316 21.440672
7.8684907 38.043266 -2.9584217
9.1304855 44.144867 -2.6680069
10.724219 51.850395 -2.2370858
12.994039 62.824715 -1.6257249
17.261909 83.459381 -0.71976024
21.102489 102.02816 0.87989885
21.057142 101.80891 2.6345253
21.020664 101.63255 4.3849373
20.977736 101.42499 6.1298761
20.934229 101.21464 7.8709221
20.893066 101.01562 9.6102657
20.849537 100.80517 11.346928
16.324699 78.928078 10.264953
16.294676 78.782928 11.630052
16.261398 78.622025 12.994212
16.227533 78.45829 14.359767
16.194889 78.300461 15.729136
16.162743 78.145035 17.102699
16.128317 77.978592 18.478251
16.093145 77.80854 19.857944
16.064354 77.669334 21.251884
7.2563109 37.803459 -2.931396
8.3294439 43.394199 -2.6151648
9.7727566 50.913475 -2.1904027
12.010665 62.572384 -1.6145813
15.298747 79.702423 -0.6854012
15.267897 79.541695 0.68401909
15.241652 79.404976 2.0489197
15.206049 79.21949 3.408186
15.178474 79.075829 4.7655296
15.147201 78.912903 6.1191487
15.119012 78.766045 7.472167
15.090878 78.619476 8.8244228
15.058563 78.451126 10.173849
15.033031 78.318108 11.528489
14.999611 78.144005 12.878404
14.967985 77.97924 14.231419
14.943509 77.85173 15.594428
14.909272 77.673355 16.951027
14.879606 77.518806 18.316954
14.852509 77.377632 19.691696
14.818206 77.198929 21.062979
6.6535754 37.55938 -2.9047871
7.6422601 43.140499 -2.5930176
8.974081 50.658611 -2.1736894
10.862388 61.318092 -1.5780427
13.762814 77.690971 -0.66634142
14.003258 79.048279 0.67798281
13.974113 78.883759 2.0301013
13.947953 78.736084 3.378454
13.921955 78.589325 4.7237172
13.894997 78.437149 6.0662131
13.866165 78.274391 7.4059391
13.840331 78.128555 8.7461901
13.812071 77.969025 10.084657
13.784825 77.815231 11.424251
13.759601 77.672836 12.766989
13.731187 77.512444 14.108912
13.70427 77.360497 15.455155
13.677903 77.211647 16.805819
13.650185 77.055183 18.159374
13.623459 76.904312 19.519617
13.647707 77.041199 20.964499
6.0110083 37.008385 -2.8552275
6.8936119 42.442371 -2.5448644
8.0857973 49.782383 -2.1309073
9.7737713 60.174843 -1.5448624
12.351102 76.042877 -0.65062308
12.764284 78.586739 0.67238843
12.74077 78.441971 2.0138323
12.715585 78.286911 3.3510277
12.688196 78.118286 4.6840086
12.668765 77.99865 6.0176601
12.686525 78.108002 7.3722596
12.659014 77.938614 8.7037516
12.636356 77.799118 10.038258
12.613588 77.658943 11.373635
12.542381 77.220535 12.661839
12.518109 77.071098 13.994532
12.538597 77.197235 15.385108
12.516808 77.06308 16.732773
12.489782 76.896698 18.078043
12.420194 76.468254 19.361832
12.439624 76.587883 20.79056
5.4379897 36.801388 -2.832962
6.242157 42.243561 -2.5273273
7.3264704 49.581612 -2.1176076
8.7235708 59.036438 -1.5122757
10.995349 74.410614 -0.6352458
11.581045 78.37429 0.66908383
11.562969 78.251953 2.0044997
11.498006 77.812317 3.323328
11.477638 77.674477 4.6470714
11.494864 77.791061 5.9883375
11.474671 77.654404 7.3131957
11.452353 77.503372 8.6359549
11.432252 77.367332 9.960412
11.408874 77.209114 11.282683
11.344303 76.772141 12.560405
11.322133 76.622108 13.882155
11.341153 76.750824 15.262225
11.31879 76.59948 16.595232
11.297812 76.457512 17.934938
11.233255 76.02063 19.205814
11.253304 76.156303 20.627565
4.8794432 36.640499 -2.8149123
5.5437756 41.629074 -2.4855623
6.4940743 48.765018 -2.0785484
7.8474536 58.927753 -1.50646
9.715827 72.957664 -0.62159109
10.383053 77.967964 0.66427827
10.364652 77.829788 1.9896816
10.307611 77.401451 3.2991409
10.286897 77.245911 4.6121497
10.305961 77.389069 5.9454274
10.283723 77.222084 7.2578759
10.265187 77.082893 8.5718527
10.243786 76.922188 9.883214
10.22309 76.766777 11.195514
10.205621 76.635597 12.512884
10.14983 76.216652 13.780964
10.165632 76.33532 15.149114
10.145734 76.185898 16.472481
10.127892 76.051926 17.80397
10.070026 75.617401 19.065577
10.088538 75.756401 20.478039
4.2801795 36.079723 -2.7668405
4.9138012 41.420826 -2.4686761
5.6868114 47.936905 -2.0395727
6.8592968 57.820358 -1.4754889
8.4736519 71.428543 -0.60746753
9.1912584 77.4776 0.65891206
9.1746006 77.337181 1.973529
9.1245823 76.91555 3.2725279
9.1072273 76.769264 4.5754385
9.1231194 76.903221 5.8974657
9.1053791 76.753677 7.2008648
9.0895348 76.620125 8.5050516
9.0715218 76.468285 9.8072081
9.0538425 76.319252 11.11021
9.0355749 76.165268 12.413702
8.9850597 75.739456 13.670026
9.002243 75.8843 15.032495
8.9836454 75.727531 16.343899
8.9669876 75.587112 17.6633
8.9166822 75.163063 18.916906
8.897439 75.000847 20.237303
3.7398686 35.911629 -2.7495632
4.2465105 40.7766 -2.426409
4.9760394 47.781811 -2.0297356
5.9140701 56.789135 -1.4468652
7.2897916 69.999329 -0.59436446
8.0216885 77.027283 0.65403885
8.0063381 76.879883 1.9587343
7.9642525 76.475761 3.2486331
7.9485927 76.325386 4.5417376
7.9628963 76.462738 5.8543463
7.9475675 76.315544 7.1483555
7.931056 76.15699 8.440177
7.9178181 76.029877 9.7354488
7.902184 75.879753 11.028634
7.8887239 75.750504 12.326436
7.8437223 75.318382 13.572373
7.8576236 75.451866 14.923023
7.8433056 75.314384 16.228838
7.8297148 75.183876 17.541086
7.7839227 74.744164 18.781513
7.7690358 74.601212 20.097406
3.1746712 35.394577 -2.706219
3.6422276 40.607388 -2.4129908
4.2162008 47.006645 -1.9940393
5.0043221 55.793449 -1.4195269
6.1550756 68.623268 -0.58187264
6.869173 76.58477 0.64938009
6.8561783 76.439896 1.9448249
6.8432541 76.295799 3.2364962
6.8078537 75.901123 4.510231
6.8193779 76.029602 5.8131151
6.8058724 75.879028 7.0976162
6.7924848 75.729767 8.381196
6.7790351 75.579819 9.6644058
6.7667027 75.442322 10.949858
6.7553396 75.315636 12.238685
6.7174044 74.892693 13.476958
6.704567 74.749573 14.763629
6.7166362 74.884132 16.11376
6.7029815 74.731895 17.411467
6.6672091 74.333069 18.652325
6.6532564 74.177505 19.955561
2.6540153 35.253563 -2.6922567
3.0141561 40.03735 -2.3763106
3.4861438 46.306812 -1.9620345
4.1329155 54.897949 -1.3950951
5.0751638 67.413925 -0.57094395
5.7339168 76.164215 0.64505213
5.7230167 76.019424 1.9318451
5.7140708 75.900597 3.2159326
5.6821165 75.476151 4.4796863
5.6923141 75.611603 5.774334
5.6816468 75.46991 7.0510182
5.6721306 75.343506 8.3286095
5.6410017 74.930016 9.5700102
5.6296053 74.778633 10.840723
5.6189499 74.6371 12.114113
5.6101708 74.520485 13.394156
5.5980129 74.358986 14.669157
5.6084504 74.497627 16.011679
5.5987821 74.369209 17.30652
5.5868912 74.211258 18.599787
5.5539312 73.773445 19.823442
2.1188231 34.789261 -2.6542108
2.4313762 39.921116 -2.3671038
2.8147078 46.215092 -1.9562408
3.3398635 54.8377 -1.3922067
4.1080723 67.451027 -0.57070172
4.6143532 75.763725 0.64103526
4.6052065 75.613548 1.919659
4.5970039 75.478867 3.1949484
4.5730438 75.085464 4.452157
4.5801325 75.201851 5.7374477
4.5725198 75.076859 7.0074639
4.562295 74.908974 8.2725096
4.5550175 74.789482 9.542757
4.5467191 74.653229 10.812001
4.5379505 74.509262 12.081584
4.5137572 74.11203 13.307766
4.5042257 73.955528 14.575353
4.5125794 74.09269 15.909133
4.5031939 73.938583 17.18955
4.4971786 73.839813 18.488663
4.4713922 73.416428 19.708294
1.6135861 34.663147 -2.6425564
1.8320276 39.355721 -2.3317852
2.1179869 45.498718 -1.924437
2.511076 53.943081 -1.3684416
3.0826685 66.222061 -0.55987275
3.5062726 75.321953 0.63680756
3.5009737 75.208122 1.9078984
3.4944501 75.067978 3.1751137
3.4752328 74.655151 4.4232392
3.4813919 74.78746 5.7014461
3.4759941 74.671501 6.9642715
3.4687381 74.515633 8.2227459
3.4622469 74.37619 9.482728
3.4559224 74.240318 10.743935
3.4493079 74.098228 12.0057
3.4301977 73.687706 13.221403
3.4251428 73.579117 14.490023
3.4298477 73.680183 15.8084
3.4243743 73.562607 17.088995
3.4174132 73.413063 18.367682
3.3986261 73.009483 19.583984
1.1013961 34.188335 -2.6048903
1.2498449 38.796322 -2.2973464
1.4433954 44.804306 -1.8939979
1.7093469 53.059685 -1.3452729
2.0946853 65.020935 -0.54940814
2.4137397 74.924675 0.63309187
2.4095285 74.793953 1.8963226
2.4044235 74.63549 3.1550422
2.3912117 74.225388 4.3952985
2.394973 74.34214 5.6643038
2.3918333 74.244682 6.9205623
2.3868253 74.089233 8.1710854
2.3829937 73.970291 9.425663
2.3784971 73.830711 10.678636
2.3738739 73.687202 11.932378
2.3611052 73.290855 13.142788
2.3564773 73.147202 14.396848
2.3609564 73.286232 15.715015
2.3565319 73.148888 16.983313
2.3519647 73.007126 18.255823
2.338922 72.602264 19.463781
0.60944098 34.058704 -2.5940831
0.69168538 38.654945 -2.2881539
0.78952956 44.122982 -1.8645279
0.93331933 52.158695 -1.3219551
1.1423888 63.842571 -0.53925788
1.3326973 74.477997 0.62909192
1.3304503 74.352425 1.8844521
1.3277535 74.201714 3.1355805
1.3206904 73.806992 4.3689561
1.3234197 73.959511 5.6331301
1.3208772 73.817429 6.8782697
1.3182795 73.672249 8.1221857
1.3159997 73.544846 9.3680916
1.3137904 73.421379 10.615624
1.3113153 73.283058 11.862679
1.304095 72.879547 13.064346
1.3016739 72.744247 14.312405
1.3039979 72.874123 15.621044
1.3015734 72.738632 16.882006
1.2991129 72.601128 18.147793
1.291919 72.199089 19.348755
0.12033217 33.617382 -2.5600762
0.13657197 38.15432 -2.2581728
0.15771613 44.061394 -1.8616393
0.18397005 51.395992 -1.3024244
0.22465007 62.760834 -0.53003931
0.26521346 74.093086 0.62574458
0.26473168 73.958488 1.87418
0.26434186 73.849586 3.1202211
0.26280472 73.420151 4.3453898
0.26328787 73.555138 5.60147
0.26281664 73.423485 6.8405113
0.26232085 73.284973 8.0782471
0.26188931 73.164413 9.3181992
0.26133707 73.010139 10.554543
0.26093894 72.898911 11.798681
0.26047239 72.76857 13.042447
0.25907031 72.376869 14.237936
0.25948772 72.493477 15.537062
0.25905117 72.371529 16.794222
0.25857368 72.238129 18.054281
0.25713465 71.836098 19.248518
-0.35948345 33.49189 -2.5506501
-0.40341458 37.584808 -2.22458
-0.46596766 43.412674 -1.8343241
-0.5426687 50.558655 -1.2812711
-0.66163927 61.642757 -0.52062339
-0.79064274 73.661583 0.62213218
-0.78910291 73.51812 1.863116
-0.78778493 73.395332 3.101187
-0.78359556 73.00502 4.3210411
-0.78502417 73.138115 5.5699978
-0.78358656 73.004181 6.801795
-0.78219879 72.874886 8.0334549
-0.78077269 72.742027 9.2648783
-0.77936131 72.610535 10.497312
-0.77781165 72.466156 11.72924
-0.77646559 72.340744 12.966432
-0.77230853 71.953445 14.155365
-0.77384102 72.096222 15.452712
-0.7722553 71.948486 16.696909
-0.77106005 71.837128 17.954979
-0.76667708 71.42878 19.140358
-0.82846326 33.071388 -2.5192709
-0.93967724 37.510933 -2.2207758
-1.0718011 42.785179 -1.8082734
-1.247189 49.786484 -1.2620256
-1.5180753 60.599979 -0.51194739
-1.8351334 73.256607 0.61887032
-1.8320063 73.131775 1.8537998
-1.8286401 72.997398 3.0851631
-1.8185396 72.5942 4.2978258
-1.8155507 72.474884 5.5209012
-1.8190291 72.613739 6.7671499
-1.8156381 72.478371 7.9917908
-1.806277 72.104691 9.1860561
-1.8028196 71.966675 10.406894
-1.7995788 71.837303 11.630433
-1.7962202 71.703232 12.855453
-1.7927284 71.563843 14.082325
-1.7899337 71.452278 15.318615
-1.7933995 71.59063 16.618116
-1.789677 71.442039 17.860804
-1.7865044 71.315384 19.114866
-1.2981607 32.966366 -2.5124288
-1.4571236 37.003181 -2.1917255
-1.6613257 42.188824 -1.7838913
-1.9605103 49.786518 -1.2626084
-2.3469272 59.599449 -0.50372708
-2.8697917 72.877426 0.61595088
-2.8642044 72.735535 1.8446058
-2.8585005 72.590691 3.0693886
-2.8439586 72.221397 4.2777267
-2.8383417 72.078766 5.493258
-2.8440368 72.223389 6.7338758
-2.8387854 72.090034 7.9526362
-2.8343287 71.976852 9.1739979
-2.8283916 71.82608 10.391354
-2.8240256 71.71521 11.616021
-2.8187349 71.580856 12.839432
-2.8042672 71.213448 14.019836
-2.7982764 71.061317 15.241822
-2.8035023 71.194023 16.533674
-2.7982376 71.060326 17.773567
-2.793319 70.935425 19.021791
-1.7496562 32.568665 -2.4837735
-1.9635345 36.549862 -2.1663179
-2.2371762 41.643517 -1.7620074
-2.6363072 49.073071 -1.2453445
-3.1530912 58.692654 -0.49639359
-3.8939514 72.483261 0.61302775
-3.887388 72.361092 1.8363328
-3.8809404 72.241074 3.0566416
-3.8591363 71.835205 4.2576876
-3.8523126 71.708183 5.468658
-3.8608813 71.867683 6.7051768
-3.8529534 71.720116 7.9171014
-3.8465548 71.601006 9.1321764
-3.839777 71.474846 10.347429
-3.8332417 71.353188 11.565085
-3.8268704 71.234596 12.785839
-3.8057766 70.841949 13.955994
-3.799319 70.721748 15.179098
-3.8055363 70.837479 16.461836
-3.7981551 70.700081 17.695248
-3.7916996 70.579918 18.939074
-2.1900575 32.165154 -2.4551399
-2.4824555 36.459576 -2.1628511
-2.8303058 41.568417 -1.7603636
-3.2906823 48.329918 -1.2275548
-3.930577 57.727985 -0.48866066
-4.9090972 72.099411 0.61031312
-4.9007282 71.976501 1.8281658
-4.8913507 71.838768 3.0422702
-4.8656497 71.461304 4.2392197
-4.856472 71.326515 5.444294
-4.8650112 71.451927 6.6722007
-4.8566608 71.329285 7.8808246
-4.8478322 71.199623 9.0889006
-4.840466 71.091431 10.300899
-4.8318071 70.964264 11.512078
-4.8227482 70.831215 12.724523
-4.797668 70.462868 13.893419
-4.7884316 70.327209 15.107581
-4.795794 70.435341 16.382658
-4.7884607 70.327637 17.61738
-4.7803974 70.209213 18.85603
-2.6467063 32.088394 -2.4519212
-2.9699652 36.007549 -2.1383388
-3.3836257 41.022728 -1.7391272
-3.9319534 47.670593 -1.2121136
-4.6883411 56.840958 -0.4816708
-5.9164066 71.729897 0.60783976
-5.9047246 71.588264 1.8202651
-5.894475 71.464005 3.0296619
-5.8633776 71.086975 4.2215605
-5.8530931 70.962296 5.4223328
-5.8641949 71.096886 6.646204
-5.8532705 70.964447 7.8489676
-5.8435779 70.846931 9.0536289
-5.8333178 70.722534 10.258494
-5.8212605 70.576355 11.461493
-5.8132091 70.478745 12.674852
-5.7819328 70.099548 13.836683
-5.7724204 69.984222 15.050108
-5.7806239 70.083679 16.318439
-5.7713552 69.971306 17.547014
-5.7605739 69.840599 18.777252
-3.0702164 31.681238 -2.4239194
-3.4428589 35.526497 -2.1124811
-3.9185693 40.435303 -1.7164258
-4.5475245 46.925423 -1.194699
-5.4185462 55.913403 -0.4744193
-6.7010698 69.147629 0.58671033
-6.8989615 71.189651 1.8124548
-6.8881922 71.078522 3.0171905
-6.8510051 70.694794 4.2036633
-6.8390212 70.571136 5.3993707
-6.8522677 70.707825 6.6183248
-6.8392839 70.573853 7.815793
-6.8274016 70.451233 9.0146265
-6.8156934 70.330421 10.214721
-6.8048673 70.218704 11.418058
-6.7932529 70.098854 12.622727
-6.755084 69.704994 13.776478
-6.7425423 69.575577 14.981449
-6.7547369 69.701416 16.250278
-6.7421198 69.57122 17.469093
-6.731885 69.465607 18.700422
-3.4856179 31.295513 -2.3979793
-3.9068351 35.077396 -2.0888879
-4.4453044 39.912029 -1.6967406
-5.1537094 46.272419 -1.179831
-6.133081 55.065678 -0.46792337
-7.5692873 67.960609 0.57749873
-7.887794 70.820312 1.805741
-7.87428 70.698975 3.0055556
-7.8336411 70.334106 4.1884542
-7.8183823 70.197105 5.3787646
-7.8329954 70.328308 6.5926204
-7.8209033 70.219742 7.7881765
-7.8074064 70.098557 8.9828787
-7.7918739 69.959099 10.175946
-7.7778025 69.832756 11.372239
-7.7649746 69.717583 12.572798
-7.7230201 69.340897 13.724958
-7.7114911 69.237389 14.930865
-7.7244797 69.354004 16.193401
-7.710947 69.232498 17.409971
-7.6979995 69.116249 18.634129
-3.9300246 31.217499 -2.3960664
-4.4108753 35.03706 -2.0900314
-4.9593568 39.393829 -1.6775569
-5.7446513 45.631683 -1.1654711
-6.8289852 54.244911 -0.46173218
-8.4129677 66.827011 0.56883091
-8.8676624 70.438805 1.7990656
-8.8527327 70.320213 2.9945338
-8.8390083 70.211197 4.1882401
-8.7893333 69.816612 5.3587012
-8.8072348 69.958809 6.569128
-8.7929802 69.845581 7.7598419
-8.7775908 69.723335 8.9499788
-8.7617674 69.597649 10.140574
-8.7458458 69.471176 11.332581
-8.7327127 69.366852 12.530806
-8.6846123 68.984779 13.677674
-8.6671867 68.846359 14.871771
-8.6846075 68.984741 16.134554
-8.6700716 68.869278 17.348063
-8.6526232 68.730675 18.561665
-4.3330717 30.849529 -2.3723407
-4.8580198 34.586926 -2.067116
-5.5265822 39.34679 -1.6787503
-6.319963 44.995304 -1.15141
-7.5011744 53.405003 -0.45545015
-9.2290974 65.707039 0.56036472
-9.8428011 70.076332 1.7932223
-9.8266211 69.961143 2.9849267
-9.808774 69.834076 4.1736913
-9.7555523 69.455162 5.3411283
-9.7382116 69.331703 6.5226631
-9.7216425 69.213737 7.7043147
-9.7217197 69.214287 8.9015856
-9.7230635 69.223854 10.105353
-9.7083378 69.119011 11.296644
-9.6927032 69.007698 12.489709
-9.6751642 68.882835 13.683517
-9.6205311 68.493874 14.823855
-9.6409245 68.639061 16.084332
-9.622467 68.507652 17.289892
-9.6045847 68.380341 18.502283
-4.731658 30.510386 -2.3512278
-5.3051429 34.208294 -2.0488155
-6.0296211 38.879829 -1.6623392
-6.8902078 44.429012 -1.1393257
-8.1692581 52.676506 -0.45018843
-10.035797 64.712204 0.55304897
-10.811825 69.716141 1.7877821
-10.794112 69.601929 2.975888
-10.77628 69.486946 4.161737
-10.718702 69.115669 5.3262744
-10.738575 69.24382 6.5281863
-10.719444 69.120461 7.7102208
-10.700306 68.997047 8.8924341
-10.68334 68.88765 10.077565
-10.664821 68.768234 11.26311
-10.646841 68.652298 12.451691
-10.626638 68.522034 13.640663
-10.569415 68.153046 14.781321
-10.591967 68.298462 16.038403
-10.571726 68.167946 17.240582
-10.550599 68.031723 18.446926
-5.1176491 30.143921 -2.3283932
-5.7332973 33.770203 -2.0272846
-6.5137033 38.366943 -1.6442281
-7.5398965 44.411411 -1.141525
-8.8102875 51.894253 -0.44453532
-10.802364 63.627968 0.54504836
-11.730453 69.094582 1.7759669
-11.708744 68.966713 2.9555914
-11.691345 68.864235 4.1340404
-11.670151 68.739388 5.3096056
-11.692229 68.869438 6.5080023
-11.671802 68.749115 7.686646
-1.2632121 7.4405575 0.96118098
-1.2221749 7.1988411 1.0555685
-1.2086495 7.119174 1.1687177
-1.2048742 7.0969362 1.2901902
-1.2036991 7.0900154 1.4146924
-1.2030295 7.0860705 1.5404338
-1.2020737 7.0804405 1.6665565
-1.3566121 7.9907017 2.0256584
-1.2167195 7.166708 1.9477887
-5.5483112 30.066324 -2.3282952
-6.1531849 33.344135 -2.0067885
-6.9885793 37.871143 -1.6271007
-8.0879097 43.828419 -1.1293999
-9.4303913 51.103333 -0.43887147
-11.545683 62.566105 0.53731287
-12.683228 68.730469 1.7710927
-12.658577 68.596886 2.9472055
-12.639412 68.493027 4.1221948
-12.617616 68.374916 5.2948604
-1.3647256 7.3954544 0.70062745
-1.3181502 7.1430616 0.80067325
-1.306622 7.0805907 0.91700208
-1.303198 7.0620356 1.0381374
-1.3071368 7.0833797 1.1657937
-1.3095394 7.0963998 1.2933677
-1.3098743 7.0982151 1.419924
-1.3101608 7.0997672 1.5473294
-1.308001 7.0880632 1.6725861
-1.2982163 7.0350404 1.7879238
-1.2965949 7.0262532 1.9144634
-5.9281459 29.733524 -2.3088582
-6.6415739 33.311832 -2.0103598
-7.4575086 37.404278 -1.6114632
-8.6191463 43.230652 -1.117061
-10.050669 50.410671 -0.43411392
-12.28301 61.607319 0.53053439
-13.629188 68.359283 1.7663736
-13.606228 68.244125 2.9401155
-13.583764 68.131454 4.1117144
-1.4389288 7.2171683 0.56042522
-1.4093393 7.0687575 0.67151928
-1.4028655 7.0362868 0.79087454
-1.4049413 7.0466986 0.91512334
-1.4158819 7.1015725 1.0468215
-1.430232 7.1735482 1.1838816
-1.4397856 7.2214656 1.3197827
-1.4478885 7.2621069 1.4567053
-1.4463416 7.2543488 1.5853684
-1.4384191 7.214612 1.7071315
-1.4213635 7.1290669 1.8168046
-1.4092553 7.068336 1.9312282
-6.29814 29.389246 -2.2888899
-7.0541234 32.91692 -1.9924161
-7.9145527 36.931973 -1.5958323
-9.147624 42.685902 -1.1062548
-10.650116 49.697033 -0.42923716
-13.004283 60.682369 0.52411836
-14.575616 68.01474 1.7626811
-1.5999887 7.4660869 0.32260999
-1.533217 7.1545076 0.4330526
-1.5059755 7.0273895 0.54730636
-1.5018071 7.0079389 0.66771525
-1.5093099 7.0429492 0.79397023
-1.5343472 7.1597815 0.93256551
-1.5708438 7.3300867 1.0837094
-1.6231281 7.5740628 1.2536861
-1.6372117 7.639782 1.4003727
-1.7309866 8.0773668 1.6250417
-1.6208494 7.5634298 1.6578156
-1.6336845 7.623323 1.8091891
-1.5904776 7.4217048 1.8969891
-1.5486687 7.2266107 1.9803261
-6.6607895 29.04612 -2.2693594
-7.4519787 32.496307 -1.9732112
-8.3598404 36.455276 -1.5802429
-9.6519089 42.08968 -1.0942713
-11.22584 48.953217 -0.42415711
-13.681195 59.660439 0.51693028
-1.6933714 7.3843904 0.19198357
-1.6263433 7.0920963 0.30742422
-1.6019837 6.9858699 0.42418966
-1.6001024 6.9776659 0.54516166
-1.6167359 7.0502014 0.67387789
-1.6669954 7.2693706 0.822101
-1.7380493 7.5792198 0.99033642
-1.7504735 7.6333985 1.1321405
-1.7282157 7.5363379 1.251408
-1.7384999 7.5811849 1.3940504
-1.7531462 7.6450534 1.5429573
-1.728543 7.537765 1.6574434
-1.7422552 7.5975609 1.8088081
-1.8675895 8.1441135 2.0882556
-1.7243501 7.5194812 2.0671337
-7.0901923 29.006634 -2.2739704
-7.8530855 32.127701 -1.9574538
-8.8016367 36.008312 -1.5661685
-10.153859 41.540379 -1.0836579
-11.80188 48.282585 -0.41976708
-1.8080134 7.3967505 0.064307086
-1.7339002 7.0935459 0.18504831
-1.7052869 6.9764867 0.3034398
-1.6957843 6.9376106 0.42268986
-1.7097132 6.9945951 0.54834014
-1.7882854 7.316041 0.70166236
-1.8668785 7.6375728 0.86667454
-1.8400522 7.5278244 0.98696113
-1.8510683 7.5728917 1.1269807
-1.8231866 7.4588256 1.242743
-1.8434827 7.5418587 1.3915285
-1.8214675 7.4517922 1.5090598
-1.8366095 7.5137391 1.657771
-1.8489683 7.5643005 1.8070052
-1.8230677 7.4583387 1.9189086
-1.8373723 7.5168605 2.0734305
-7.4430051 28.664934 -2.2553039
-8.2431545 31.746515 -1.9412192
-9.3477602 36.000641 -1.5714935
-10.645411 40.998226 -1.0733798
-1.9649264 7.5674391 -0.066028804
-1.8510604 7.128912 0.062202483
-1.8092104 6.9677367 0.1824232
-1.7907501 6.8966413 0.30105096
-1.8005672 6.9344492 0.42402405
-1.8596249 7.1618958 0.56348467
-1.9545401 7.5274391 0.7245459
-1.9649546 7.5675478 0.86183172
-1.9395961 7.4698853 0.98290402
-1.9518355 7.5170226 1.1227089
-1.9327607 7.4435611 1.2446816
-1.948085 7.5025783 1.3892834
-1.931147 7.437346 1.5115771
-1.944978 7.4906125 1.6586409
-1.9256835 7.4163046 1.7780534
-1.9345497 7.4504504 1.9238062
-1.9484921 7.5041461 2.0774038
-7.7933421 28.340366 -2.2383146
-8.6330957 31.394115 -1.9270294
-9.7776909 35.556419 -1.5580521
-11.130904 40.477356 -1.0638051
-1.9879497 7.2291484 -0.063318871
-1.9177943 6.9740291 0.06108433
-1.8919505 6.8800483 0.18081789
-1.8877585 6.8648043 0.30080989
-1.929943 7.0182071 0.43079066
-2.0907502 7.6029801 0.60048133
-2.0490286 7.4512606 0.71996266
-2.0608783 7.4943514 0.85676736
-2.0345089 7.3984599 0.9772374
-2.0477967 7.4467812 1.1164814
-2.0356967 7.4027796 1.2426072
-2.050724 7.4574261 1.3862158
-2.0361419 7.4043984 1.5106493
-2.0276058 7.3733563 1.6389353
-2.0290217 7.3785057 1.7757722
-2.0454154 7.4381208 1.9279847
-2.0225658 7.3550286 2.0439279
-8.1394415 28.023792 -2.2222853
-9.0052805 31.004841 -1.9108511
-10.204481 35.133644 -1.5457684
-2.1505382 7.404222 -0.19538292
-2.0474467 7.0492821 -0.061993793
-2.0029774 6.8961759 0.060647324
-1.9843404 6.8320093 0.18028335
-1.9964751 6.8737884 0.30242479
-2.1713758 7.475965 0.46074924
-2.176223 7.4926538 0.59416711
-2.1862969 7.527338 0.73026234
-2.1533182 7.4137931 0.85099417
-2.1638525 7.4500623 0.98804319
-2.144695 7.3841043 1.111573
-2.1364748 7.3558021 1.239728
-2.1507313 7.4048872 1.3820305
-2.1359007 7.353826 1.5064147
-2.1282907 7.3276243 1.635374
-2.143281 7.3792362 1.7831484
-2.1252649 7.3172069 1.9043334
-2.1423321 7.3759685 2.0580578
-8.4810648 27.712883 -2.2070308
-9.4790096 30.973785 -1.9171027
-10.619006 34.69886 -1.5331695
-2.1970861 7.1792388 -0.19025642
-2.1261659 6.9474988 -0.061360028
-2.0895994 6.8280134 0.060304739
-2.0818391 6.8026552 0.18027662
-2.1174035 6.9188671 0.3057102
-3.0783195 10.058773 0.62258136
-2.2707365 7.4199004 0.59091461
-2.2758911 7.4367433 0.72455943
-2.2493351 7.349968 0.84727687
-2.2634978 7.3962464 0.98510194
-2.2449212 7.335546 1.1089867
-2.25758 7.3769102 1.2486036
-2.2525396 7.3604398 1.379611
-2.2514946 7.3570251 1.5135165
-2.2414072 7.3240633 1.641571
-2.2344429 7.3013062 1.7718642
-2.2444184 7.3339028 1.9168429
-2.219085 7.2511225 2.0318773
-8.8098545 27.380529 -2.1903803
-9.8436956 30.593649 -1.9021003
-2.4202073 7.5218673 -0.33385023
-2.2737231 7.0666027 -0.18811467
-2.2116327 6.8736296 -0.060980957
-2.1798244 6.7747707 0.060103908
-2.1803322 6.7763491 0.18038805
-2.2537332 7.0044751 0.31088632
-2.4032004 7.4690108 0.46437114
-2.3580732 7.3287582 0.5862841
-2.3657765 7.3526993 0.71959656
-2.3725159 7.3736453 0.85383344
-2.3529923 7.3129673 0.97839552
-2.3685422 7.3612952 1.1178904
-2.3565145 7.3239136 1.2452149
-2.3549535 7.3190627 1.3780324
-2.3588459 7.3311596 1.514986
-2.3338747 7.253551 1.633087
-2.3457813 7.290556 1.7772213
-2.3342965 7.2548614 1.9047217
-2.334168 7.2544622 2.041966
-9.227809 27.331572 -2.196805
-10.209795 30.240086 -1.8890105
-2.4767232 7.3357325 -0.32712874
-2.3531251 6.9696507 -0.18641129
-2.2963226 6.8014088 -0.060625624
-2.2721989 6.7299576 0.05998873
-2.2813175 6.7569656 0.18072279
-2.4848211 7.3597169 0.32819831
-2.4876857 7.3682017 0.46027023
-2.4901581 7.3755245 0.59281588
-2.4535656 7.2671423 0.71458703
-2.4627693 7.2944026 0.84865248
-2.4698942 7.3155055 0.98336422
-2.454546 7.2700462 1.1092548
-2.4571638 7.2777996 1.2432271
-2.3817003 7.0542865 1.3344622
-2.3532014 6.9698763 1.447139
-2.3778174 7.0427856 1.5931343
-2.4433026 7.2367449 1.7724475
-2.4480665 7.250855 1.9126736
-2.4225299 7.1752191 2.029213
-9.5542688 27.016397 -2.182241
-10.569013 29.885767 -1.876135
-2.5604608 7.2401595 -0.32446787
-2.4401772 6.9000359 -0.18546453
-2.3883317 6.7534337 -0.060496505
-2.362854 6.6813912 0.059851158
-2.3799634 6.7297711 0.18088801
-3.7911654 10.720196 0.48042575
-2.5752974 7.2821121 0.45714822
-2.5766294 7.2858787 0.58851457
-2.5803919 7.2965178 0.72103357
-2.5802169 7.2960229 0.85305035
-2.5523357 7.2171845 0.9749586
-2.5703781 7.2682018 1.1144729
-2.4973631 7.061739 1.2123008
-2.4312758 6.8748655 1.3069704
-2.3876667 6.7515531 1.4087607
-2.3964362 6.7763505 1.540466
-2.5004458 7.070456 1.7403071
-2.5476971 7.2040677 1.9097555
-2.542989 7.1907544 2.0436912
-9.8874292 26.734882 -2.1707108
-10.935231 29.56806 -1.8658252
-2.6571822 7.1848254 -0.32365939
-2.5377207 6.8618097 -0.18539441
-2.4804511 6.7069573 -0.06039203
-2.4602306 6.6522822 0.059899714
-2.4770405 6.6977353 0.18096139
-2.7238517 7.3650947 0.33178011
-2.7140522 7.3385978 0.4630855
-2.6658697 7.2083154 0.5852716
-2.6622126 7.1984267 0.71503258
-2.6637621 7.2026167 0.84650046
-2.6686485 7.2158289 0.97983521
-2.6706359 7.2212033 1.1130136
-2.5871665 6.9955082 1.2071643
-2.5119705 6.7921834 1.2979541
-2.4466381 6.6155295 1.3875433
-2.4664927 6.6692142 1.5239803
-2.5786932 6.9725966 1.7251284
-2.6407244 7.1403246 1.9026827
-2.6292946 7.1094193 2.0310628
-10.202847 26.419218 -2.1567173
-11.278673 29.204958 -1.8529098
-2.7606606 7.1484456 -0.32376745
-2.6399553 6.8358917 -0.18569607
-2.5764112 6.671351 -0.060397286
-2.5489419 6.6002221 0.05975334
-2.5737627 6.6644926 0.18104003
-2.8068745 7.2681117 0.32918736
-2.7967803 7.2419739 0.45946732
-2.7918313 7.2291589 0.59014809
-2.7854795 7.2127113 0.72033811
-2.7863066 7.2148533 0.85253847
-2.7800179 7.1985693 0.98279411
-2.7758188 7.187696 1.1138589
-2.7070017 7.0095015 1.2161406
-2.623493 6.7932639 1.3052028
-2.5726502 6.661612 1.4047881
-2.5961676 6.7225075 1.5444914
-2.6923873 6.9716592 1.7342535
-2.7467139 7.1123323 1.9055046
-2.7467637 7.1124611 2.0429547
-11.62516 28.865892 -1.8417661
-2.8751264 7.139092 -0.32517439
-2.7479541 6.8233166 -0.18640383
-2.6764076 6.6456628 -0.060505345
-2.6515403 6.5839157 0.059943173
-2.6620243 6.6099477 0.18057488
-2.8827634 7.1580553 0.32603812
-2.8859799 7.1660419 0.45722377
-2.8765368 7.1425939 0.58638251
-2.8711708 7.1292701 0.71603572
-2.8700349 7.1264496 0.84685969
-2.8635094 7.1102467 0.97623152
-2.8743637 7.137198 1.1122952
-2.8562465 7.0922122 1.2374573
-2.7700796 6.8782554 1.3290142
-2.7418115 6.808064 1.4437996
-2.7645745 6.8645859 1.5860627
-2.8527489 7.0835276 1.7720575
-2.8322687 7.0326738 1.89483
-2.8434501 7.0604377 2.0394931
-11.964812 28.524227 -1.8307059
-3.0030935 7.1594033 -0.32802382
-2.8490872 6.7922511 -0.18665011
-2.7810004 6.629931 -0.060718309
-2.7454937 6.5452833 0.059943084
-2.7529206 6.5629888 0.18035002
-4.0477242 9.6498137 0.44212744
-3.0307894 7.2254305 0.46373346
-3.0153992 7.1887403 0.59365356
-3.0035064 7.160388 0.72340477
-2.9957438 7.1418815 0.85370159
-2.976393 7.0957494 0.97999001
-2.9668188 7.0729246 1.1087829
-2.9704833 7.0816607 1.2429075
-2.9730301 7.0877323 1.3775704
-2.9312413 6.9881072 1.4907268
-2.9501956 7.0332947 1.6346321
-2.9444175 7.0195193 1.7664071
-2.9478109 7.0276093 1.9046385
-2.9204643 6.9624143 2.0230458
-12.304835 28.196556 -1.820793
-3.1795754 7.2860041 -0.33587506
-2.9747865 6.81673 -0.18847355
-2.8861272 6.6135669 -0.06094053
-2.8418179 6.512032 0.060004938
-2.8321221 6.4898138 0.17943476
-2.8993375 6.6438379 0.30627209
-3.1126168 7.1325684 0.46058568
-3.0966399 7.0959573 0.58959132
-3.080157 7.0581865 0.7174601
-3.0720417 7.0395904 0.84664369
-3.0612187 7.0147896 0.97476029
-3.0795388 7.0567698 1.1130464
-3.0590265 7.0097661 1.2378472
-3.0619097 7.0163727 1.3720785
-3.0624387 7.0175848 1.5062116
-3.0509398 6.9912353 1.6348389
-3.0546608 6.9997616 1.7722563
-3.0606973 7.0135946 1.9125177
-3.0374515 6.9603267 2.0348635
-12.650469 27.892645 -1.812675
-3.4434035 7.5922585 -0.352229
-3.1019721 6.8394465 -0.19030975
-2.9984448 6.6111827 -0.061307747
-2.945857 6.4952331 0.060232509
-2.9228895 6.4445925 0.17932281
-2.9616301 6.5300107 0.30294794
-3.1996174 7.0547414 0.45847046
-4.5402441 10.01065 0.83708221
-3.2289276 7.1193666 0.72830242
-3.2152104 7.0891223 0.85804784
-3.186507 7.025835 0.98253238
-3.1636472 6.9754319 1.1072462
-3.1794343 7.0102406 1.2458397
-3.1526167 6.9511118 1.3680007
-3.1613123 6.970284 1.5056171
-3.1571007 6.9609981 1.6381674
-3.1737769 6.997767 1.7830702
-3.136466 6.9155011 1.8978163
-3.1531217 6.9522252 2.0454798
-12.973837 27.550455 -1.8023205
-14.463446 30.713699 -1.4343636
-3.2817566 6.9689398 -0.1952
-3.1348035 6.6568794 -0.062141236
-3.0516889 6.480382 0.060493652
-3.0195682 6.4121723 0.17960493
-3.027061 6.4280834 0.30019858
-3.1137044 6.6120744 0.43255463
-3.3345048 7.0809526 0.59603328
-3.3109448 7.0309224 0.72402853
-3.2952836 6.9976649 0.85259968
-3.2692547 6.9423914 0.97730708
-3.2954204 6.9979553 1.1181942
-3.2712178 6.9465604 1.2427164
-3.2873824 6.980886 1.3829792
-3.2554436 6.9130635 1.5031682
-3.2620952 6.9271879 1.6410308
-3.2779975 6.9609571 1.7854633
-3.2409699 6.8823276 1.9012485
-3.2689381 6.9417191 2.0559444
-13.289768 27.204247 -1.7919326
-14.820728 30.338133 -1.4265851
-3.588263 7.3451991 -0.20715639
-3.2888484 6.7322955 -0.063278191
-3.176867 6.5030689 0.061123647
-3.1279976 6.4030323 0.18058451
-3.1070278 6.3601069 0.29907027
-3.1352794 6.4179387 0.42274696
-3.4168324 6.9942794 0.59279358
-3.3997605 6.9593329 0.72159362
-3.4473646 7.0567789 0.86572558
-3.4106276 6.9815779 0.9895944
-3.391448 6.9423175 1.1169462
-3.365505 6.8892121 1.2409477
-3.3810418 6.9210157 1.3805642
-3.3498812 6.8572297 1.5013
-3.3637161 6.88555 1.6424044
-3.3845553 6.9282079 1.7893059
-3.3520746 6.8617196 1.9086145
-3.38641 6.9320045 2.0672116
-13.62388 26.904865 -1.7848744
-15.175421 29.968897 -1.4192911
-17.12871 33.826313 -0.96081853
-3.5122018 6.9360061 -0.065658703
-3.3228605 6.562089 0.062119067
-3.2448397 6.408011 0.18201615
-3.2117825 6.3427286 0.30038404
-3.2059138 6.3311391 0.42000911
-3.2472734 6.4128175 0.54739559
-4.7888045 9.4570818 0.98758417
-3.5353978 6.9818144 0.86264861
-3.5077908 6.9272952 0.98891562
-3.4774301 6.8673382 1.1127769
-3.5107448 6.9331288 1.2577813
-3.4774272 6.8673325 1.3796431
-3.5059919 6.9237428 1.5266925
-3.4708498 6.8543429 1.6466421
-3.5022781 6.9164085 1.799021
-3.4660754 6.8449144 1.9175432
-3.5105927 6.9328289 2.0822289
-13.939812 26.57798 -1.7762434
-15.525572 29.601427 -1.4122678
-17.510111 33.385197 -0.95530999
-20.390625 38.877254 -0.37075078
-3.5681503 6.8031211 0.064877592
-3.4053299 6.4926834 0.18578669
-3.3426774 6.373229 0.30406323
-3.3001878 6.2922173 0.42051768
-3.3048456 6.3010979 0.54184157
-3.33972 6.3675904 0.66987813
-3.621002 6.9038892 0.85933626
-3.6020436 6.867743 0.98767316
-3.6388109 6.9378443 1.1325253
-3.6055887 6.8745017 1.2563792
-3.5749388 6.8160639 1.3794819
-3.6108222 6.88448 1.5292747
-3.5770681 6.8201237 1.6505524
-3.6132636 6.8891349 1.8051944
-3.5813217 6.8282337 1.9270333
-3.8482876 7.3372374 2.2200065
-14.263024 26.273067 -1.7693285
-15.877929 29.247789 -1.4060947
-18.13809 33.411098 -0.96338141
-20.823835 38.358349 -0.36860695
-24.031322 44.26667 0.42538336
