# .PCD v0.7 - Point Cloud Data file format
VERSION 0.7
FIELDS x y z
SIZE 4 4 4
TYPE F F F
COUNT 1 1 1
WIDTH 1517
HEIGHT 1
VIEWPOINT 0 0 0 1 0 0 0
POINTS 1517
DATA ascii
-1.1903889 9.455657 -0.080486462
-1.2056214 9.5766535 0.081516385
-1.1971678 9.5095034 0.2428806
-1.1892173 9.4463511 0.40226579
-1.1994479 9.5276155 0.56834155
-1.1866722 9.4261341 0.72349304
-1.1961257 9.5012264 0.89216453
-1.2063775 9.5826597 1.0646333
-1.1914475 9.4640656 1.2148471
-1.207845 9.5943165 1.3979191
-1.1965518 9.504611 1.5504526
-1.1717554 9.3076448 1.6813836
-1.1446027 9.0919619 1.8026714
-1.118551 8.8850241 1.9192888
-1.1043689 8.7723713 2.0517333
-10.942784 86.922195 21.895563
-10.937884 86.88327 23.464022
-1.2372214 8.8084621 -0.67737412
-1.2208482 8.6918917 -0.51947808
-1.2365555 8.8037205 -0.37561509
-1.2666137 9.0177221 -0.2307595
-1.3041795 9.2851734 -0.079186097
-1.3337842 9.4959459 0.080983609
-1.3572617 9.6630945 0.24727431
-1.3590573 9.6758785 0.41282618
-1.3457432 9.5810881 0.57262164
-1.361074 9.690237 0.74518299
-1.3465831 9.5870686 0.90194255
-1.3627383 9.7020855 1.0799578
-1.3476751 9.5948429 1.2339839
-1.3390551 9.5334721 1.391704
-1.3177524 9.3818064 1.5333397
-1.2883703 9.1726189 1.660153
-1.2662131 9.0148697 1.7907963
-1.2462674 8.8728657 1.920319
-1.8891186 13.449677 3.1516905
-12.376166 88.112762 22.23781
-12.371534 88.079781 23.832539
-1.8990682 12.245455 -0.94367385
-1.3645381 8.7987299 -0.5269767
-1.3640785 8.7957668 -0.37607029
-1.383455 8.9207087 -0.22876029
-1.4123158 9.1068077 -0.077829376
-1.4433666 9.3070278 0.079540513
-1.4659389 9.4525766 0.24239935
-1.4840795 9.5695496 0.40915397
-1.4937935 9.6321869 0.5768944
-1.4977827 9.6579094 0.74426937
-1.4949909 9.6399078 0.90883374
-1.4868443 9.5873775 1.0694489
-1.4736416 9.5022449 1.2246623
-1.4578085 9.4001513 1.3751469
-1.4341031 9.2472954 1.5145552
-1.4122384 9.106308 1.6516408
-1.3912127 8.9707317 1.7858012
-1.3820798 8.9118423 1.9328378
-2.0253518 13.059749 3.0667965
-2.2082968 14.239404 3.6013348
-13.783136 88.875565 24.098772
-2.0301857 11.958177 -0.92368001
-2.0080681 11.8279 -0.71004957
-1.5090773 8.8887501 -0.38093036
-1.5094863 8.8911591 -0.22853316
-1.5301543 9.0128975 -0.077206068
-1.5515801 9.1391001 0.078287132
-1.5689734 9.2415495 0.2375394
-1.5869573 9.3474789 0.40058932
-1.5991493 9.4192915 0.56545657
-1.6032169 9.4432507 0.72942072
-1.6022334 9.4374571 0.89181781
-1.5990154 9.4185019 1.0530564
-1.5840926 9.3306046 1.2053398
-1.5706265 9.2512865 1.3565192
-1.5540462 9.1536245 1.502703
-1.533391 9.0319624 1.6419691
-1.5277051 8.9984713 1.7954924
-2.0802405 12.253009 2.6636693
-2.151845 12.674773 2.983321
-2.2793643 13.425886 3.4034884
-15.255406 89.857224 24.421658
-2.1581244 11.694886 -0.90563607
-2.134356 11.566085 -0.69609499
-2.1164403 11.468999 -0.49275556
-1.6657298 9.026597 -0.23260337
-1.6566207 8.9772348 -0.077095799
-1.6702732 9.051218 0.077731155
-1.6836052 9.1234646 0.23509952
-1.6997986 9.211216 0.39575189
-1.7072017 9.2513332 0.55678368
-1.7132218 9.2839565 0.71893698
-1.7101482 9.2673006 0.87796164
-1.7083392 9.2574978 1.0376827
-1.6999414 9.2119904 1.1930381
-1.6886204 9.1506414 1.345168
-1.6803902 9.1060419 1.4986866
-1.6823046 9.1164169 1.6615298
-2.158572 11.697311 2.3399255
-2.202971 11.93791 2.6017585
-2.268203 12.291402 2.9004295
-2.3802469 12.898568 3.2781131
-16.755068 90.795792 24.739389
-2.2868524 11.470058 -0.89066929
-2.2622755 11.346789 -0.68477559
-2.2460001 11.265159 -0.48532921
-2.2225521 11.147551 -0.28804779
-2.2082829 11.075981 -0.095381349
-1.811177 9.0842361 0.078229338
-1.8107371 9.0820303 0.23467565
-1.81855 9.1212168 0.39296323
-1.8254629 9.1558895 0.55255538
-1.8325199 9.1912842 0.71371865
-1.8324928 9.1911488 0.87314266
-1.8274422 9.1658163 1.0302324
-1.8241742 9.1494255 1.1881951
-1.823027 9.143671 1.3478411
-2.2259533 11.16461 1.8425437
-2.2485676 11.278036 2.0611546
-2.2831044 11.451261 2.2970073
-2.3266211 11.669524 2.5502629
-2.3933401 12.004164 2.8404419
-2.5057931 12.56819 3.2029359
-18.281305 91.692696 25.052504
-2.4083254 11.238058 -0.87524116
-2.3881462 11.143896 -0.67452484
-2.3675849 11.04795 -0.47738245
-2.3470874 10.952302 -0.28384164
-2.3285048 10.865588 -0.09384694
-2.3160827 10.807623 0.09334629
-2.3074722 10.767444 0.27905083
-2.2989159 10.727517 0.46353653
-2.2570744 10.53227 0.63750398
-2.0500844 9.5663853 0.74504811
-2.29776 10.722123 1.0216023
-2.3034317 10.74859 1.2117169
-2.315203 10.803518 1.4071642
-2.3288324 10.867117 1.6066381
-2.348654 10.959611 1.8140742
-2.3696373 11.057527 2.0268457
-2.4062479 11.228364 2.2589738
-2.4487114 11.426514 2.5045583
-2.5167646 11.744072 2.7871373
-2.6101274 12.179735 3.1131425
-19.844673 92.601944 25.375938
-2.5276937 11.022672 -0.86119604
-2.5009468 10.906034 -0.66222632
-2.4819617 10.823245 -0.46915993
-2.4631162 10.741064 -0.27925226
-2.4424736 10.651048 -0.09228643
-2.4336526 10.612581 0.091953136
-2.4177969 10.543437 0.27411425
-2.4120917 10.518559 0.45595255
-2.4105272 10.511736 0.63828409
-2.2132571 9.6514874 0.75406605
-2.4106545 10.512291 1.0047941
-2.4159524 10.535395 1.1914592
-2.4247515 10.573765 1.3816178
-2.4376009 10.629798 1.5765487
-2.4596119 10.725782 1.7810149
-2.4785337 10.808296 1.9874611
-2.5183196 10.981793 2.2163923
-2.5613713 11.169532 2.4560153
-2.6189072 11.420431 2.7189476
-2.7097833 11.816721 3.0299597
-2.894783 12.623461 3.470237
-2.638463 10.794197 -0.84620935
-2.6162972 10.703514 -0.65213615
-2.5996983 10.635606 -0.46259189
-2.5745375 10.532671 -0.27476427
-2.5591056 10.469538 -0.091021791
-2.5429292 10.403359 0.090446435
-2.5297701 10.349524 0.26998651
-2.5261977 10.334908 0.44951314
-2.5203371 10.310932 0.62821722
-2.3862188 9.7622423 0.76530939
-2.5242026 10.326747 0.99041122
-2.5300555 10.350692 1.1745461
-2.5319593 10.35848 1.358084
-2.5531857 10.445319 1.5544488
-2.570823 10.517475 1.7523562
-2.5969956 10.62455 1.9603077
-2.6317089 10.766564 2.1803331
-2.6761899 10.948541 2.4155979
-2.728085 11.160849 2.6661701
-2.8231754 11.549871 2.9715931
-2.9868114 12.219321 3.3705449
-2.7502527 10.591934 -0.8333537
-2.7299407 10.513707 -0.64288658
-2.7067719 10.424478 -0.45504743
-2.6869977 10.348323 -0.27093074
-2.6714451 10.288425 -0.089770451
-2.6518481 10.212952 0.089111909
-2.6392021 10.164249 0.26611149
-2.6388464 10.162879 0.44362816
-2.6303351 10.130099 0.61943001
-2.5528867 9.8318262 0.7735498
-2.6345127 10.14619 0.97661096
-2.6374416 10.157469 1.1567854
-2.6425433 10.177117 1.3391277
-2.6566279 10.231359 1.5281103
-2.6765189 10.307965 1.7236555
-2.7020888 10.406442 1.927004
-2.7327907 10.524683 2.1390522
-2.7794609 10.704422 2.3702724
-2.8389287 10.933448 2.6212859
-2.9215674 11.251711 2.9053426
-3.0595319 11.783048 3.2619498
-2.8619447 10.407416 -0.82197499
-2.8446856 10.344654 -0.63497418
-2.8158267 10.23971 -0.44869536
-2.7975702 10.17332 -0.26736996
-2.7759993 10.094878 -0.088419311
-2.758764 10.032202 0.087870345
-2.7526944 10.01013 0.2630811
-2.7403684 9.9653072 0.43667129
-2.737613 9.955287 0.61107409
-2.7249959 9.9094048 0.78264213
-2.739567 9.9623919 0.96259552
-2.7467191 9.9884014 1.1418915
-2.753664 10.013656 1.3226697
-2.7649302 10.054626 1.5074704
-2.7819529 10.116528 1.6981286
-2.8103044 10.219627 1.8996648
-2.8444319 10.343732 2.1103337
-2.8854077 10.492741 2.3323059
-2.9393594 10.688934 2.5724874
-3.0164559 10.969295 2.8432763
-3.1431653 11.430072 3.1763632
-2.9669328 10.215037 -0.81005198
-2.9452624 10.140428 -0.62496197
-2.9226112 10.062441 -0.44271532
-2.9024692 9.9930916 -0.26369813
-2.8790648 9.9125118 -0.087174013
-2.865788 9.8668003 0.08677201
-2.8519208 9.8190556 0.25910565
-2.840591 9.7800474 0.43029094
-2.8351419 9.7612867 0.60159528
-2.8386819 9.7734747 0.7750361
-2.8414419 9.7829771 0.94909251
-2.8485177 9.8073387 1.125738
-2.8541701 9.8268003 1.3032513
-2.8706002 9.8833685 1.4878021
-2.8910854 9.9538984 1.6776043
-2.9155982 10.038295 1.8735234
-2.942378 10.130497 2.0752094
-2.9851892 10.277894 2.293813
-3.0465252 10.489072 2.5346217
-3.1215696 10.747447 2.7970674
-3.242065 11.162308 3.1145296
-3.0702956 10.032555 -0.79898417
-3.0468764 9.9560289 -0.61622208
-3.0266664 9.8899908 -0.43698934
-3.0042725 9.8168154 -0.26015463
-2.9812927 9.7417269 -0.08603853
-2.9667153 9.6940937 0.08561784
-2.9525411 9.6477776 0.25567496
-2.942955 9.6164541 0.42490312
-2.9407368 9.6092052 0.59475565
-2.93748 9.5985632 0.76442152
-2.9410489 9.6102257 0.93632108
-2.9441874 9.6204805 1.109013
-2.9564047 9.6604023 1.2866635
-2.9684997 9.6999245 1.466433
-2.9860129 9.7571507 1.6514792
-3.0110343 9.8389101 1.8441657
-3.0442212 9.9473534 2.0464091
-3.093209 10.107427 2.2654173
-3.139416 10.258413 2.4894879
-3.2123389 10.496697 2.7434943
-3.3218222 10.854447 3.0415847
-3.1782358 9.8777771 -0.79019988
-3.1460247 9.777667 -0.60790735
-3.1244743 9.7106895 -0.4309988
-3.1039836 9.6470051 -0.2568056
-3.081387 9.5767765 -0.084962532
-3.0662107 9.5296097 0.084544085
-3.0519819 9.4853878 0.25250331
-3.0425906 9.4561996 0.41970357
-3.0354292 9.4339418 0.58653694
-3.031981 9.4232254 0.75383675
-3.0331218 9.4267712 0.92258257
-3.0449286 9.4634657 1.0958248
-3.0483727 9.4741697 1.2675409
-3.0653207 9.5268431 1.4467517
-3.0814376 9.5769339 1.6282744
-3.1086257 9.6614332 1.8190536
-3.1455421 9.7761679 2.0202475
-3.1831045 9.892909 2.2273202
-3.2367356 10.059591 2.4522302
-3.3028388 10.265036 2.6950257
-3.4123535 10.605402 2.9851792
-3.2663112 9.6743889 -0.77758968
-3.2436635 9.6073093 -0.60014081
-3.2221787 9.5436745 -0.42558944
-3.1990969 9.4753094 -0.25342798
-3.1773272 9.4108295 -0.083885178
-3.1572886 9.3514776 0.083356135
-3.1451356 9.3154831 0.24915326
-3.1380796 9.2945833 0.41448152
-3.1290195 9.2677488 0.57892942
-3.1244485 9.2542105 0.74381733
-3.1275845 9.2634993 0.91089129
-3.1353192 9.2864084 1.0804083
-3.1449435 9.3149137 1.2521285
-3.1573865 9.3517685 1.4268816
-3.1765769 9.4086075 1.6072215
-3.2044132 9.4910555 1.7954267
-3.2356391 9.5835419 1.9898082
-3.2765353 9.7046719 2.1952739
-3.3312359 9.8666878 2.4165816
-3.3929114 10.049363 2.6508806
-3.4924276 10.344116 2.9254043
-3.3630583 9.5096464 -0.76813871
-3.3459971 9.4614029 -0.5939573
-3.3198481 9.3874617 -0.42069924
-3.2917852 9.3081093 -0.25019062
-3.2711408 9.2497339 -0.082858086
-3.2567596 9.2090683 0.082493804
-3.2364848 9.1517382 0.24598753
-3.2339971 9.1447029 0.40982002
-3.2291729 9.1310616 0.57321954
-3.2225738 9.112402 0.73605138
-3.2248571 9.1188583 0.90111512
-3.2258937 9.121789 1.0665188
-3.2321866 9.1395836 1.2346526
-3.2478642 9.1839142 1.4082195
-3.2635934 9.2283926 1.5842538
-3.2940154 9.314415 1.7707494
-3.3224361 9.3947802 1.9602891
-3.367382 9.5218725 2.1646047
-3.4115658 9.6468105 2.3744454
-3.4852581 9.8551884 2.6125517
-3.5823393 10.129703 2.8789725
-3.459949 9.3554478 -0.75960577
-3.4435275 9.3110447 -0.58755231
-3.4134037 9.2295923 -0.41577131
-3.3876979 9.1600857 -0.2474899
-3.3702345 9.1128664 -0.082055755
-3.3475249 9.0514603 0.08150284
-3.3356738 9.0194168 0.24368925
-3.3254366 8.9917355 0.40505642
-3.3164954 8.9675589 0.56587744
-3.3172579 8.9696207 0.72827899
-3.318516 8.9730234 0.8913064
-3.3235433 8.9866161 1.0561682
-3.3313501 9.0077257 1.2231563
-3.3400607 9.0312786 1.3920031
-3.3621724 9.0910664 1.5687797
-3.3842449 9.1507492 1.7486649
-3.421068 9.2503166 1.9401643
-3.4581761 9.3506536 2.1367152
-3.5055146 9.4786539 2.3451657
-3.5702248 9.6536245 2.572402
-3.6585591 9.8924742 2.8261433
-3.5516167 9.1965446 -0.75075448
-3.5271215 9.1331167 -0.57945096
-3.5098319 9.0883474 -0.41162947
-3.4824476 9.0174389 -0.24495748
-3.4570439 8.9516582 -0.081041433
-3.434936 8.894412 0.080523178
-3.4230642 8.8636713 0.24078041
-3.4127305 8.8369131 0.40024152
-3.4044051 8.8153553 0.55929059
-3.4040129 8.8143396 0.71955341
-3.4045208 8.8156548 0.88042504
-3.4059799 8.8194332 1.0421425
-3.4220672 8.8610897 1.2097719
-3.4356453 8.8962488 1.378629
-3.4474263 8.926754 1.5487819
-3.4736991 8.9947853 1.7281852
-3.5043385 9.0741224 1.9135338
-3.5482666 9.18787 2.1109068
-3.5812907 9.2733822 2.3068247
-3.6571167 9.4697256 2.537087
-3.7477555 9.7044258 2.7874601
-3.6170385 8.9812994 -0.5730449
-3.593173 8.92204 -0.40638486
-3.5639277 8.8494225 -0.24175431
-3.5374043 8.7835636 -0.079969831
-3.5273695 8.758646 0.079742976
-3.5100403 8.7156172 0.23809893
-3.5000572 8.6908283 0.39585355
-3.492316 8.671607 0.55328518
-3.4877541 8.6602793 0.71097928
-3.4870243 8.6584673 0.86962223
-3.4909058 8.6681051 1.0300598
-3.5017626 8.6950626 1.1938256
-3.5144937 8.726675 1.3600069
-3.5331998 8.7731228 1.5307446
-3.5565822 8.8311834 1.7063582
-3.5921776 8.9195681 1.8915906
-3.629756 9.0128775 2.0824256
-3.6718111 9.1173029 2.280839
-3.7393596 9.2850294 2.5016873
-3.82602 9.5002117 2.7442513
-3.7088468 8.8419266 -0.56748134
-3.6787312 8.7701302 -0.40182284
-3.6575234 8.7195711 -0.23961258
-3.6308491 8.6559792 -0.079273283
-3.6126814 8.6126671 0.078876622
-3.5975804 8.5766659 0.23568559
-3.5816307 8.5386419 0.39121667
-3.5778461 8.5296192 0.54743719
-3.5810714 8.5373087 0.70501965
-3.5779078 8.5297661 0.86175132
-3.5845642 8.5456352 1.0214987
-3.5867858 8.5509319 1.1809644
-3.603554 8.5909071 1.3467486
-3.6216767 8.6341114 1.5153793
-3.6467006 8.6937695 1.6897196
-3.678031 8.7684603 1.8705178
-3.7161422 8.8593187 2.0590246
-3.7581041 8.9593563 2.2545519
-3.821425 9.1103134 2.4690979
-3.90418 9.3076029 2.7044792
-3.7948189 8.6958361 -0.56153369
-3.7656772 8.6290579 -0.39778808
-3.7419252 8.5746298 -0.23707716
-3.7096717 8.500721 -0.078329653
-3.6958365 8.469017 0.07803753
-3.6768086 8.425415 0.23295157
-3.6765256 8.4247665 0.38837051
-3.6639299 8.3959036 0.54216558
-3.658854 8.3842716 0.69663525
-3.65277 8.3703308 0.85083872
-3.6633079 8.3944778 1.0095946
-3.6734552 8.4177303 1.16971
-3.6838462 8.4415417 1.331463
-3.7021184 8.4834127 1.4980768
-3.7260013 8.5381403 1.6696659
-3.7568989 8.608942 1.8477708
-3.7925208 8.6905699 2.0322132
-3.8438265 8.8081369 2.2301152
-3.8985219 8.9334717 2.4360435
-3.9800644 9.120326 2.666343
-3.8851032 8.5661488 -0.55669314
-3.8559196 8.5018034 -0.39442566
-3.8181052 8.4184275 -0.23424539
-3.7984133 8.3750086 -0.077664308
-3.7850256 8.3454914 0.077390581
-3.7649581 8.3012447 0.23098475
-3.7534144 8.2757921 0.38394028
-3.7446408 8.2564478 0.53656644
-3.7446325 8.2564297 0.69039577
-3.7484195 8.2647791 0.84547669
-3.7456636 8.2587032 0.99961066
-3.7563548 8.2822752 1.1582401
-3.7671194 8.3060102 1.3184557
-3.7891183 8.3545151 1.4847403
-3.8158424 8.4134378 1.6557912
-3.8398623 8.4663992 1.8287857
-3.8779318 8.5503378 2.0121949
-3.9187925 8.6404295 2.2016299
-3.9773247 8.7694855 2.4066041
-4.061451 8.9549732 2.6347272
-3.9665763 8.4231815 -0.55103528
-3.9371493 8.360692 -0.39045352
-3.9111235 8.3054256 -0.23263495
-3.884203 8.2482586 -0.076996587
-3.8585026 8.1936827 0.076487131
-3.8455608 8.1662006 0.22873525
-3.8375361 8.1491594 0.3805747
-3.8235221 8.1194 0.53116226
-3.825599 8.1238108 0.683815
-3.8227525 8.1177664 0.83594924
-3.8257797 8.1241941 0.98985666
-3.8354921 8.1448193 1.1465774
-3.8451402 8.165307 1.3047239
-3.8628886 8.2029963 1.4674888
-3.882215 8.2440367 1.6332211
-3.9102092 8.303484 1.8054997
-3.9530385 8.394433 1.9886171
-3.996094 8.4858637 2.1765969
-4.055099 8.6111622 2.3788404
-4.1401114 8.7916908 2.6038549
-4.0348387 8.2593422 -0.54403949
-4.0099206 8.2083349 -0.38597918
-3.9855287 8.1584053 -0.23009121
-3.9532297 8.092288 -0.07606104
-3.9341037 8.0531378 0.075693056
-3.9211915 8.0267057 0.22637691
-3.9176176 8.0193901 0.37709448
-3.9018354 7.9870839 0.52610594
-3.8970919 7.9773741 0.67611486
-3.9042213 7.9919682 0.82866466
-3.9053257 7.9942284 0.98073184
-3.9131253 8.0101948 1.1353942
-3.9226556 8.0297031 1.291895
-3.9373219 8.0597248 1.4517913
-3.9679568 8.1224346 1.6202164
-3.9913919 8.1704063 1.7888027
-4.0325356 8.2546282 1.9689695
-4.0778561 8.3473997 2.1558321
-4.1427932 8.4803267 2.3588362
-4.2000685 8.5975695 2.563904
-4.1247382 8.1456623 -0.54038501
-4.0938282 8.0846205 -0.38287795
-4.0670199 8.0316782 -0.22813556
-4.0454812 7.9891434 -0.075628072
-4.019166 7.9371748 0.075136118
-4.0008807 7.9010649 0.22442555
-3.994746 7.8889499 0.37361121
-3.9832058 7.8661594 0.52184266
-3.9768085 7.8535261 0.67037392
-3.9851646 7.8700285 0.82185137
-3.9891431 7.8778849 0.97336394
-3.9939086 7.8872962 1.1259619
-4.0065613 7.9122829 1.2820988
-4.0203238 7.9394612 1.4403462
-4.0457315 7.9896379 1.6051136
-4.0709801 8.0394993 1.7727181
-4.1055889 8.1078453 1.9477752
-4.1521945 8.1998835 2.1328645
-4.209199 8.312458 2.3286629
-4.2816315 8.4555006 2.5395529
-4.2018533 8.0113544 -0.53540999
-4.1737986 7.9578648 -0.37966534
-4.1370564 7.8878107 -0.22570795
-4.1179538 7.8513899 -0.074874341
-4.0962281 7.809967 0.074479319
-4.0727553 7.765213 0.22219984
-4.0687103 7.7575011 0.3701061
-4.0640402 7.7485962 0.5178495
-4.0581174 7.7373042 0.66534328
-4.0511165 7.7239556 0.81256938
-4.0568566 7.7349005 0.96277332
-4.0593872 7.7397251 1.1130759
-4.0768838 7.7730846 1.2688689
-4.1005163 7.8181424 1.4288385
-4.1209202 7.8570447 1.5901629
-4.1441717 7.9013777 1.7551619
-4.1796451 7.9690118 1.9285972
-4.2239814 8.053544 2.1103103
-4.2773352 8.1552696 2.3015432
-4.3493495 8.2925739 2.5090599
-4.2838588 7.8910408 -0.53141278
-4.2471266 7.823379 -0.37611088
-4.2196107 7.7726941 -0.2241192
-4.1914692 7.7208557 -0.074194051
-4.1771097 7.6944056 0.073939875
-4.1581192 7.6594243 0.22085316
-4.1518407 7.6478586 0.36767271
-4.1386747 7.6236062 0.5134027
-4.1275482 7.6031108 0.65881664
-4.1360397 7.618753 0.80764717
-4.1386828 7.623621 0.95619786
-4.1391363 7.6244564 1.1049058
-4.1517935 7.6477714 1.2579848
-4.176187 7.6927052 1.4166931
-4.2022848 7.7407789 1.5786439
-4.224515 7.7817278 1.741837
-4.2571259 7.8417983 1.912361
-4.2990499 7.919024 2.0909712
-4.3551922 8.02244 2.2814157
-4.4218621 8.1452494 2.4833801
-4.3598371 7.7638898 -0.52699846
-4.3309026 7.7123637 -0.37371573
-4.2903743 7.640192 -0.22204658
-4.2702456 7.6043477 -0.073654272
-4.2499676 7.5682364 0.073304504
-4.2342691 7.5402818 0.2191429
-4.2283864 7.5298052 0.36486953
-4.2161479 7.5080113 0.50962991
-4.2130857 7.5025582 0.65526193
-4.2082806 7.4940019 0.800726
-4.2220645 7.5185475 0.95050132
-4.222404 7.5191522 1.0982914
-4.2308202 7.5341396 1.2491267
-4.2400756 7.5506215 1.4015601
-4.2720242 7.6075149 1.5637763
-4.2982588 7.6542325 1.7268931
-4.3349414 7.7195559 1.897487
-4.3779521 7.7961488 2.0748603
-4.4264307 7.8824778 2.2593994
-4.4946933 8.0040379 2.4596894
-4.4348974 7.6393566 -0.52280062
-4.3961501 7.5726118 -0.369955
-4.363235 7.5159135 -0.2202272
-4.3444276 7.4835172 -0.073078744
-4.3254418 7.4508133 0.072759375
-4.3101182 7.4244175 0.21754622
-4.3025908 7.4114509 0.36208159
-4.2888012 7.3876972 0.50557834
-4.2827344 7.3772469 0.64960486
-4.2827101 7.3772049 0.79471487
-4.2811475 7.3745141 0.93994302
-4.2942433 7.3970718 1.089326
-4.3065896 7.4183397 1.2400205
-4.3206782 7.4426074 1.3928471
-4.3447442 7.4840627 1.5510242
-4.370502 7.5284319 1.7124492
-4.3965325 7.5732708 1.8768059
-4.4486761 7.6630912 2.0561845
-4.4949703 7.7428355 2.2375855
-4.5685511 7.8695822 2.4382157
-4.5136046 7.5247993 -0.51932901
-4.4751 7.4606071 -0.36757475
-4.4332561 7.3908477 -0.21839954
-4.4159632 7.3620172 -0.072502077
-4.3945961 7.326396 0.072151273
-4.3821826 7.3057008 0.21588345
-4.3666539 7.2798123 0.35866722
-4.3584156 7.266078 0.50147319
-4.3535066 7.257894 0.64451623
-4.3513341 7.2542715 0.78810048
-4.3629522 7.2736416 0.93494982
-4.3673973 7.2810516 1.0813354
-4.3744626 7.29283 1.2293812
-4.3897023 7.3182373 1.381189
-4.4068656 7.3468504 1.535503
-4.4455614 7.4113617 1.7001196
-4.4751444 7.4606805 1.8645868
-4.5169201 7.5303264 2.0376997
-4.5660133 7.6121721 2.2184851
-4.6407218 7.7367215 2.4173844
-4.5832777 7.3987975 -0.51510775
-4.5457406 7.3382015 -0.36471233
-4.5100436 7.2805753 -0.21702635
-4.493669 7.2541418 -0.072065756
-4.463387 7.2052579 0.071580119
-4.4552155 7.1920662 0.21438798
-4.4353776 7.1600418 0.3558577
-4.4362836 7.1615047 0.49858731
-4.426507 7.1457219 0.64011592
-4.4225879 7.1393957 0.78241742
-4.4301181 7.1515517 0.92731225
-4.4343648 7.1584067 1.0724375
-4.4409471 7.1690331 1.2191027
-4.4665346 7.2103386 1.3727504
-4.475286 7.2244663 1.5231564
-4.5121303 7.2839441 1.6855334
-4.5377631 7.3253231 1.8468016
-4.5872769 7.4052534 2.0214155
-4.6353722 7.4828935 2.1999195
-4.6937017 7.5770555 2.388243
-4.6505046 7.2727118 -0.51091152
-4.6235185 7.2305093 -0.36261192
-4.5863223 7.1723404 -0.21573471
-4.5529766 7.1201925 -0.071375147
-4.5395622 7.0992146 0.071164854
-4.5186028 7.0664372 0.2125493
-4.5105467 7.0538383 0.35375181
-4.4973474 7.0331964 0.49408543
-4.4982667 7.0346341 0.63586718
-4.4941673 7.0282235 0.77720398
-4.5000663 7.0374489 0.92077464
-4.5104995 7.0537648 1.0663235
-4.5194159 7.0677085 1.2127485
-4.5257378 7.0775952 1.3596716
-4.5536575 7.1212573 1.5149832
-4.5807829 7.1636777 1.6727043
-4.6103983 7.2099915 1.8341743
-4.6611218 7.2893162 2.0077741
-4.70822 7.3629708 2.1842515
-4.7660537 7.453414 2.3705313
-4.7236295 7.159204 -0.5076353
-4.6958332 7.1170764 -0.36025709
-4.6519113 7.0505071 -0.21405099
-4.6324058 7.0209441 -0.071037643
-4.6056867 6.9804487 0.070627913
-4.5909233 6.9580731 0.21124473
-4.5764241 6.9360976 0.35109618
-4.5687728 6.9245014 0.49099329
-4.5672255 6.9221563 0.63154459
-4.5573063 6.9071226 0.77094668
-4.5666175 6.9212351 0.91402787
-4.5682392 6.9236927 1.0564369
-4.5837088 6.9471383 1.2031945
-4.601696 6.9744 1.3523619
-4.620863 7.0034499 1.5038376
-4.6515613 7.0499768 1.6615314
-4.6770883 7.088666 1.820154
-4.7239647 7.1597123 1.9904964
-4.7815008 7.2469149 2.169904
-4.8321619 7.323698 2.3510325
-4.7843513 7.0302434 -0.5032953
-4.7650418 7.0018692 -0.35784122
-4.734354 6.9567761 -0.21324083
-4.7019525 6.909164 -0.070580378
-4.684443 6.8834352 0.070317551
-4.656137 6.8418417 0.20971784
-4.6482434 6.8302426 0.34906998
-4.6484618 6.8305631 0.48900017
-4.6314759 6.805604 0.62689489
-4.6298809 6.8032603 0.76667219
-4.6488876 6.8311892 0.91083062
-4.6362357 6.8125982 1.0495037
-4.6566877 6.8426509 1.1965193
-4.6651893 6.8551431 1.3420479
-4.6962218 6.9007435 1.4960642
-4.7165074 6.9305511 1.649127
-4.7524257 6.9833307 1.810388
-4.7903233 7.0390182 1.9758017
-4.840219 7.1123362 2.1501317
-4.8982019 7.1975379 2.3328006
-4.8389506 6.8961663 -0.49860412
-4.825253 6.8766456 -0.35493484
-4.7955484 6.834312 -0.21156935
-4.7642107 6.7896514 -0.070048943
-4.7385702 6.7531104 0.069671944
-4.7253027 6.7342024 0.20847027
-4.71734 6.7228546 0.34699699
-4.7087564 6.7106214 0.48518893
-4.7054591 6.7059226 0.62385297
-4.6939564 6.6895299 0.76134914
-4.694509 6.6903172 0.90091461
-4.708313 6.70999 1.0439717
-4.720211 6.7269459 1.1879793
-4.736342 6.7499347 1.3345865
-4.7505903 6.7702413 1.4823614
-4.7890377 6.8250332 1.640162
-4.8199463 6.8690829 1.7984709
-4.8506336 6.912816 1.9596652
-4.8939996 6.9746184 2.129457
-4.971087 7.0844789 2.3189809
-4.8954215 6.7685065 -0.49438968
-4.8921695 6.76401 -0.35269934
-4.8616428 6.7218032 -0.2102191
-4.8387232 6.690114 -0.069729418
-4.8173876 6.6606154 0.069421962
-4.7985063 6.6345091 0.20748904
-4.7767634 6.6044474 0.34437916
-4.7833452 6.6135478 0.48307106
-4.7618027 6.5837626 0.61876577
-4.7691159 6.593874 0.7581538
-4.7715144 6.5971904 0.89747906
-4.7748756 6.6018372 1.0376718
-4.7867379 6.618238 1.1807603
-4.8122182 6.6534677 1.3289957
-4.8289475 6.6765981 1.4768405
-4.8479037 6.7028074 1.627298
-4.884459 6.7533493 1.7862912
-4.9218974 6.8051124 1.9489046
-4.9765038 6.8806124 2.1222861
-5.0371542 6.964469 2.3030622
-4.9497476 6.6413379 -0.49022564
-4.9405928 6.629055 -0.34931394
-4.9306288 6.615685 -0.20908608
-4.9009395 6.5758495 -0.069262519
-4.8759699 6.542347 0.068909638
-4.8586164 6.519062 0.20603235
-4.840764 6.4951086 0.34225574
-4.8440289 6.4994898 0.47975522
-4.8294067 6.4798703 0.61543518
-4.8321762 6.4835863 0.75334841
-4.8302011 6.4809365 0.89097804
-4.8391991 6.4930091 1.0313479
-4.8475566 6.5042229 1.1726778
-4.8761482 6.5425863 1.3206536
-4.8880596 6.5585685 1.4660586
-4.9089704 6.5866256 1.6159847
-4.9440331 6.6336708 1.7731721
-4.9826956 6.6855464 1.9348892
-5.0286589 6.7472177 2.1031268
-5.0914602 6.8314815 2.2829504
-5.0038004 6.5170803 -0.48629057
-5.0053902 6.5191507 -0.34726232
-4.9942789 6.5046792 -0.20781577
-4.9629941 6.463933 -0.068824902
-4.940093 6.4341059 0.068507314
-4.9316778 6.4231458 0.20521088
-4.9078412 6.3921008 0.3404946
-4.9075112 6.3916707 0.47693279
-4.8865647 6.3643899 0.61104769
-4.8925538 6.37219 0.74846518
-4.8929448 6.3726993 0.88563538
-4.8959327 6.3765903 1.0238822
-4.9133573 6.3992848 1.1663182
-4.9274435 6.4176311 1.3095332
-4.9507074 6.4479308 1.4570181
-4.9776492 6.4830208 1.6078813
-5.0091023 6.5239859 1.7628375
-5.049315 6.5763602 1.924009
-5.102066 6.6450644 2.0938339
-5.1519094 6.709981 2.2667582
-5.070714 6.4121146 -0.48382443
-5.0650697 6.4049773 -0.34500706
-5.0664949 6.4067798 -0.20698369
-5.0294719 6.3599629 -0.068477362
-5.0035505 6.3271837 0.068124436
-5.0015669 6.324676 0.20433116
-4.9695377 6.2841735 0.3384999
-4.9752316 6.2913737 0.47471395
-4.960947 6.2733107 0.60905832
-4.9581289 6.2697468 0.74469191
-4.9613738 6.27385 0.88167679
-4.9728689 6.2883859 1.0210438
-4.9717641 6.2869887 1.1587026
-4.9976625 6.3197384 1.304021
-5.0222549 6.3508368 1.4511733
-5.042243 6.3761125 1.5991025
-5.0752063 6.4177957 1.7535934
-5.1130552 6.4656572 1.9128369
-5.1701088 6.5378036 2.0831409
-5.2241082 6.6060882 2.2566905
-5.1229339 6.290956 -0.48016611
-5.1196728 6.2869515 -0.34256172
-5.1347814 6.3055048 -0.20606515
-5.0998187 6.2625709 -0.068207704
-5.0803828 6.2387037 0.06794776
-5.0507145 6.202271 0.20269144
-5.0487137 6.1998143 0.33781379
-5.0264602 6.1724868 0.47112375
-5.0330334 6.1805587 0.60698527
-5.0292773 6.1759458 0.74202484
-5.0188966 6.1631989 0.87613255
-5.0411263 6.1904964 1.0167613
-5.0419126 6.191462 1.1542792
-5.0636501 6.2181559 1.2978827
-5.0829992 6.2419167 1.4427618
-5.105504 6.2695522 1.5905422
-5.1363387 6.3074174 1.7433434
-5.1769743 6.3573179 1.9025126
-5.2253885 6.4167705 2.0681958
-5.2806282 6.4846044 2.2407813
-5.1955528 6.1968446 -0.47861001
-5.1767769 6.1744504 -0.34043431
-5.1832995 6.1822295 -0.20444012
-5.159862 6.1542754 -0.06782566
-5.1314635 6.1204038 0.067452371
-5.1190934 6.1056499 0.20190771
-5.1017818 6.0850019 0.33550248
-5.0939755 6.0756912 0.46925277
-5.0960917 6.0782156 0.60403597
-5.0884771 6.0691333 0.73786676
-5.0884929 6.0691519 0.87302756
-5.093379 6.0749793 1.0096588
-5.1024327 6.0857782 1.1480746
-5.1285219 6.1168957 1.2919366
-5.1393595 6.1298218 1.4337084
-5.1712103 6.1678104 1.5833466
-5.2013502 6.2037592 1.7350924
-5.234148 6.2428775 1.8904915
-5.284071 6.3024216 2.0555067
-5.3423967 6.3719883 2.2280619
-5.2574515 6.0914278 -0.47623149
-5.2615714 6.0962005 -0.34023747
-5.2510934 6.0840607 -0.20365842
-5.2302279 6.0598855 -0.067603528
-5.198915 6.0236053 0.067198798
-5.1857758 6.0083818 0.20112514
-5.1720324 5.9924588 0.33444747
-5.1639905 5.9831405 0.46776554
-5.1502204 5.9671865 0.60026664
-5.1511998 5.9683208 0.73449916
-5.1512609 5.9683924 0.86905074
-5.1651511 5.9844861 1.006803
-5.1751256 5.9960423 1.1450026
-5.1855626 6.0081348 1.2845105
-5.1973114 6.0217471 1.4256842
-5.2249112 6.0537252 1.573097
-5.2610903 6.095643 1.7257389
-5.2943382 6.1341653 1.8803264
-5.357728 6.2076106 2.0493858
-5.4094415 6.2675271 2.2183821
-5.3149858 5.9827938 -0.47363755
-5.3026137 5.9688678 -0.33733228
-5.3105154 5.9777617 -0.20262383
-5.2810192 5.9445596 -0.067153357
-5.2575521 5.9181442 0.066854954
-5.2444038 5.9033437 0.20010135
-5.2408004 5.8992877 0.33339995
-5.219955 5.8758225 0.46516901
-5.2010403 5.8545313 0.59636176
-5.2109084 5.8656397 0.73096675
-5.2009559 5.8544369 0.86320907
-5.2194386 5.8752418 1.0008904
-5.2309904 5.8882446 1.1385989
-5.2378106 5.8959222 1.2764177
-5.2603335 5.9212751 1.4195776
-5.2919779 5.9568954 1.5674579
-5.3270392 5.9963622 1.7190419
-5.3657374 6.0399222 1.8747882
-5.408215 6.0877371 2.0351586
-5.475265 6.1632113 2.2089725
-5.385426 5.8901 -0.4723534
-5.3768077 5.8806739 -0.33666295
-5.3609886 5.8633723 -0.20132683
-5.3518691 5.8533988 -0.066982053
-5.3256845 5.82476 0.066654332
-5.3111582 5.8088722 0.19945551
-5.2836404 5.7787757 0.33082938
-5.2828698 5.7779331 0.46335825
-5.2773194 5.7718625 0.59557426
-5.278852 5.7735386 0.72883058
-5.2727542 5.7668695 0.86133742
-5.2839341 5.7790971 0.99729365
-5.2938004 5.7898879 1.1341157
-5.3087544 5.8062434 1.2733232
-5.3281126 5.8274155 1.4152142
-5.3586707 5.8608375 1.5622044
-5.3872695 5.8921165 1.7110875
-5.4321828 5.9412379 1.8680998
-5.4766202 5.98984 2.0284293
-5.5213656 6.0387788 2.1924748
-5.4357424 5.7768917 -0.46946609
-5.4403434 5.7817807 -0.33542508
-5.4502902 5.7923522 -0.20154628
-5.4107218 5.7502999 -0.066681676
-5.3898449 5.7281132 0.066424392
-5.3700953 5.7071242 0.19858076
-5.3492236 5.6849427 0.32980707
-5.3344989 5.6692939 0.46072203
-5.3382406 5.6732702 0.59322447
-5.3389535 5.6740279 0.72584122
-5.3426394 5.6779451 0.85938936
-5.3422756 5.6775584 0.99286526
-5.3588767 5.6952014 1.1304775
-5.3655047 5.7022452 1.2672285
-5.3814769 5.7192197 1.4075007
-5.4169455 5.7569146 1.5550116
-5.4439688 5.785634 1.7026191
-5.4942346 5.8390541 1.8605069
-5.5297608 5.8768101 2.0167496
-5.5883112 5.9390349 2.1850784
-5.4942236 5.6740885 -0.33370551
-5.5029573 5.6831079 -0.20046528
-5.4675164 5.6465073 -0.06637878
-5.4519534 5.6304345 0.066189833
-5.4312148 5.6090169 0.19785179
-5.4160171 5.5933213 0.32895541
-5.4046569 5.5815897 0.45983425
-5.4030619 5.5799422 0.5914917
-5.3931189 5.5696735 0.72229278
-5.3992467 5.5760026 0.85556918
-5.4019527 5.5787969 0.98901445
-5.4181495 5.5955238 1.1259705
-5.4262323 5.6038713 1.2624977
-5.4492249 5.6276164 1.4040084
-5.4647226 5.6436214 1.5453794
-5.502831 5.6829777 1.6954145
-5.5438504 5.7253399 1.8493683
-5.5966282 5.7798452 2.0107584
-5.6631413 5.848536 2.1813819
-5.5695286 5.5895147 -0.33338585
-5.5604458 5.5803995 -0.19962932
-5.5262303 5.5460615 -0.066121064
-5.5054941 5.5252509 0.06587296
-5.4927669 5.5124779 0.19719952
-5.4856892 5.5053744 0.32836732
-5.4778023 5.4974599 0.45931566
-5.4548531 5.4744277 0.58852309
-5.4578052 5.4773908 0.72038233
-5.4487429 5.4682961 0.85092247
-5.4598551 5.4794478 0.98515528
-5.4837599 5.5034385 1.12312
-5.4908404 5.5105443 1.2590492
-5.5065918 5.5263524 1.3982654
-5.5251756 5.5450029 1.5398725
-5.5576625 5.5776062 1.687538
-5.6106148 5.6307487 1.8445655
-5.6453743 5.6656327 1.9989314
-5.7124877 5.7329874 2.1685593
-5.6117158 5.4729128 -0.33118808
-5.6273041 5.4881158 -0.19918902
-5.5866885 5.4485049 -0.06590458
-5.558795 5.4213009 0.065575525
-5.5514493 5.4141374 0.196504
-5.5413318 5.4042697 0.32703424
-5.5182991 5.3818073 0.45620543
-5.5124907 5.3761425 0.58637929
-5.5071726 5.3709555 0.71667784
-5.5164299 5.3799839 0.84938008
-5.5258999 5.3892198 0.98305291
-5.5389314 5.4019289 1.1184691
-5.5526919 5.4153495 1.2553296
-5.577064 5.4391184 1.3962482
-5.5973396 5.4588928 1.5380508
-5.6184821 5.4795122 1.6820183
-5.6710153 5.5307455 1.8382083
-5.7166619 5.5752635 1.9957126
-5.7654271 5.6228223 2.1578825
-5.6818633 5.384829 -0.33074534
-5.6811848 5.3841863 -0.198348
-5.6617718 5.365788 -0.065877549
-5.6371102 5.3424158 0.065590598
-5.6028552 5.3099518 0.19561328
-5.5964055 5.3038392 0.3257708
-5.5828309 5.2909741 0.45523283
-5.5665817 5.2755747 0.58404094
-5.567605 5.2765441 0.71464056
-5.5703931 5.2791862 0.84596759
-5.585588 5.2935867 0.98009157
-5.5910358 5.2987499 1.1135614
-5.6126466 5.319231 1.251543
-5.6352744 5.3406758 1.3915409
-5.6503963 5.3550072 1.5314112
-5.6846719 5.3874907 1.678576
-5.7263284 5.42697 1.8307713
-5.7734475 5.4716258 1.9879918
-5.8350468 5.530005 2.1540937
-5.734859 5.2813268 -0.32939613
-5.7366748 5.2829986 -0.19762503
-5.7167678 5.2646661 -0.06563393
-5.6908479 5.2407961 0.065336347
-5.6706328 5.2221799 0.19534993
-5.6597753 5.2121811 0.32508352
-5.644228 5.1978631 0.45412609
-5.6338739 5.1883278 0.58324975
-5.6306705 5.1853781 0.71313566
-5.6376772 5.1918302 0.84481359
-5.6323285 5.1869044 0.97516602
-5.6572671 5.2098708 1.1117865
-5.6638527 5.2159357 1.2461859
-5.6967874 5.2462659 1.3880455
-5.7089548 5.2574711 1.5267303
-5.7533021 5.2983112 1.6762763
-5.7833719 5.3260031 1.8244491
-5.827302 5.3664589 1.9798838
-5.8918443 5.4258971 2.1461709
-5.7978249 5.1879416 -0.32871392
-5.8013625 5.1911068 -0.1972736
-5.7632341 5.1569891 -0.065313257
-5.745502 5.1411223 0.065112308
-5.72926 5.1265888 0.19482177
-5.7052894 5.1051397 0.32346752
-5.7058353 5.1056285 0.45315665
-5.6943822 5.0953798 0.58190393
-5.6922503 5.093472 0.71162832
-5.694675 5.0956421 0.84233892
-5.6941519 5.0951738 0.97314346
-5.7143774 5.1132717 1.1085132
-5.7171474 5.1157503 1.2416738
-5.7489352 5.1441941 1.3826694
-5.7570882 5.1514897 1.5197278
-5.8007183 5.1905303 1.6682742
-5.8434353 5.228754 1.8196008
-5.8875337 5.2682133 1.9745258
-5.944819 5.3194728 2.1375136
-5.8591342 5.0936975 -0.32802269
-5.8649926 5.0987906 -0.19693543
-5.8319058 5.0700264 -0.0652624
-5.8067188 5.04813 0.064980544
-5.8036098 5.0454273 0.19487432
-5.7691488 5.0154681 0.32298487
-5.7539539 5.0022583 0.45124558
-5.7535419 5.0019002 0.5805738
-5.7440228 4.9936242 0.70909244
-5.7617435 5.0090303 0.84156811
-5.7575641 5.0053968 0.97163701
-5.7750096 5.0205631 1.1062216
-5.7822471 5.026855 1.2400585
-5.8175201 5.0575199 1.3816125
-5.8259044 5.0648088 1.5186012
-5.8608642 5.0952015 1.664427
-5.9023824 5.1312962 1.8148998
-5.9426966 5.1663432 1.968024
-5.9939041 5.2108612 2.1281266
-5.928906 5.0071845 -0.32788283
-5.9211645 5.0006461 -0.19639806
-5.8914876 4.9755831 -0.06512551
-5.873292 4.960216 0.064924374
-5.8388252 4.9311075 0.19366696
-5.8294649 4.9232025 0.32238349
-5.8162284 4.9120235 0.45056939
-5.8218517 4.9167728 0.58030587
-5.8175225 4.9131169 0.70941186
-5.8082042 4.9052467 0.83801323
-5.8190303 4.9143901 0.97003978
-5.8286796 4.9225392 1.1028926
-5.8303795 4.923975 1.2351396
-5.8558145 4.9454556 1.3737552
-5.8805161 4.9663172 1.5141521
-5.9114037 4.992403 1.6583164
-5.9604473 5.0338221 1.8104137
-6.0140524 5.0790935 1.9673777
-6.0615516 5.1192083 2.1259115
-5.971323 4.8983245 -0.32631779
-5.9874525 4.9115558 -0.19624485
-5.9375949 4.870657 -0.064857893
-5.9263716 4.8614507 0.064735301
-5.895678 4.8362727 0.19323684
-5.8762288 4.8203177 0.32112113
-5.8816452 4.8247609 0.45024112
-5.8653698 4.8114104 0.57771987
-5.8716183 4.8165359 0.70752907
-5.8679423 4.8135204 0.83660597
-5.8784757 4.8221612 0.96834421
-5.8822064 4.8252215 1.0998398
-5.908968 4.8471742 1.2369637
-5.9134541 4.8508539 1.3708483
-5.9419999 4.8742704 1.5118642
-5.9777293 4.9035797 1.6570632
-6.0219212 4.9398308 1.8074244
-6.0715852 4.9805703 1.9626764
-6.1310368 5.0293388 2.1248162
-6.0326529 4.8058581 -0.32587683
-6.0360889 4.8085952 -0.19556302
-6.0103369 4.7880802 -0.064897217
-5.9818072 4.7653522 0.064589165
-5.9580884 4.7464566 0.19303589
-5.9404044 4.7323694 0.32089368
-5.9398975 4.7319651 0.44946948
-5.9367614 4.7294669 0.5780248
-5.9195294 4.7157393 0.70509654
-5.9247689 4.719913 0.83499038
-5.9325185 4.7260871 0.96600431
-5.9446979 4.7357893 1.0987374
-5.9521198 4.7417021 1.2316631
-5.9736576 4.7588601 1.3688738
-6.0000358 4.7798738 1.5090684
-6.0382514 4.810318 1.6545848
-6.0952735 4.8557439 1.8083946
-6.1221681 4.8771691 1.9562609
-6.1853733 4.9275212 2.1189871
-6.0943618 4.7140341 -0.32553205
-6.079946 4.7028832 -0.19478308
-6.0495963 4.6794076 -0.064591303
-6.0357428 4.6686916 0.06444338
-6.0118694 4.6502252 0.1926021
-5.996799 4.6385679 0.3203207
-5.9880505 4.6318011 0.44805065
-5.9793091 4.6250401 0.57566291
-5.9853225 4.6296911 0.70496792
-5.9768844 4.6231642 0.83292383
-5.9937935 4.6362433 0.96507734
-5.9975615 4.6391582 1.0961227
-6.0166016 4.6538854 1.2310959
-6.0295568 4.6639066 1.3662459
-6.075604 4.6995244 1.5110016
-6.1052642 4.7224669 1.6542556
-6.1331735 4.7440548 1.7993085
-6.1821809 4.7819624 1.953366
-6.2433352 4.8292661 2.1149468
-6.1419311 4.611856 -0.3245137
-6.1546178 4.6213827 -0.19503617
-6.102839 4.5825024 -0.064452849
-6.0901575 4.5729804 0.064318918
-6.0783486 4.5641136 0.19261925
-6.0510674 4.5436287 0.31971288
-6.0457597 4.5396428 0.44746095
-6.0373931 4.533361 0.57494891
-6.0307813 4.5283961 0.70261586
-6.0430965 4.537643 0.83301449
-6.0465374 4.5402269 0.96300751
-6.0605054 4.5507154 1.0956098
-6.0813789 4.5663886 1.2308505
-6.0961618 4.5774889 1.3663518
-6.1167173 4.5929236 1.5047227
-6.1517987 4.6192656 1.6487806
-6.1949515 4.6516681 1.7977152
-6.2390819 4.6848049 1.9499578
-6.3084416 4.7368855 2.1138172
-6.2188516 4.5318937 -0.32511726
-6.2158737 4.5297236 -0.19490276
-6.178648 4.5025959 -0.064566225
-6.1601686 4.4891291 0.064373113
-6.1472244 4.4796968 0.19275022
-6.1199951 4.4598532 0.31994909
-6.0991316 4.4446497 0.44665682
-6.0915008 4.4390888 0.57399201
-6.0876384 4.4362741 0.70177025
-6.1063318 4.4498963 0.83286601
-6.1121044 4.4541035 0.96319765
-6.1043177 4.4484286 1.0919076
-6.1325507 4.4690032 1.228135
-6.139524 4.4740849 1.3615779
-6.1706934 4.496799 1.5020132
-6.2146044 4.5287986 1.6480713
-6.2509294 4.5552697 1.7948548
-6.29705 4.5888796 1.9473472
-6.3539333 4.6303325 2.1066372
-6.2620783 4.4275799 -0.32403079
-6.2659059 4.4302859 -0.19446328
-6.2323437 4.4065557 -0.064461626
-6.2254815 4.4017038 0.064390652
-6.189765 4.3764505 0.19210024
-6.172965 4.3645725 0.31941962
-6.1634264 4.3578281 0.44675159
-6.1514654 4.349371 0.57371747
-6.1633129 4.357748 0.70323139
-6.1497931 4.3481889 0.83022004
-6.1550422 4.3519001 0.96004951
-6.1719112 4.3638272 1.0927137
-6.1770091 4.3674316 1.2243938
-6.2064166 4.3882241 1.3623437
-6.2395892 4.4116788 1.5032587
-6.2713156 4.4341111 1.646111
-6.3142462 4.4644647 1.794503
-6.3531222 4.4919519 1.9446051
-6.4217839 4.5404992 2.1073697
-6.3290753 4.3404322 -0.32424957
-6.331677 4.3422165 -0.19455567
-6.3086824 4.326447 -0.064604081
-6.2695546 4.2996135 0.064203389
-6.2509584 4.2868605 0.1920754
-6.233633 4.2749786 0.3193599
-6.2079439 4.2573614 0.44551578
-6.219933 4.265583 0.57434994
-6.2164416 4.2631888 0.70225894
-6.2129002 4.2607603 0.83042127
-6.2210994 4.2663832 0.96072948
-6.2270279 4.2704492 1.0915382
-6.2337203 4.2750387 1.2233807
-6.2672095 4.2980051 1.3620446
-6.2866292 4.3113232 1.4995707
-6.3250718 4.3376865 1.6437558
-6.366714 4.3662448 1.7914695
-6.4022975 4.3906474 1.9402221
-6.481421 4.4449096 2.1058462
-6.3867683 4.2468934 -0.32405785
-6.3828382 4.2442799 -0.19424112
-6.3510928 4.2231708 -0.064412765
-6.3139029 4.198441 0.06403558
-6.3004956 4.1895261 0.1917353
-6.2853918 4.1794825 0.31891412
-6.2652831 4.1661115 0.44530565
-6.2760172 4.1732488 0.57395416
-6.2636142 4.1650019 0.70078152
-6.2709422 4.1698747 0.83011663
-6.2707348 4.1697364 0.95907956
-6.2805629 4.1762714 1.0903324
-6.2987108 4.1883392 1.2242445
-6.3212829 4.2033482 1.3605814
-6.3514719 4.223423 1.5004644
-6.3782787 4.2412477 1.6416385
-6.4277792 4.2741637 1.7912542
-6.481575 4.3099351 1.9453527
-6.5324907 4.3437915 2.1020229
-6.4483624 4.1559958 -0.32413155
-6.4358091 4.1479053 -0.19402649
-6.4207215 4.1381812 -0.064511597
-6.3694386 4.1051297 0.063996345
-6.3554997 4.0961456 0.19160533
-6.3408241 4.0866871 0.31872609
-6.340405 4.0864172 0.44644201
-6.3196301 4.0730276 0.57255244
-6.3173761 4.0715752 0.70020449
-6.3175907 4.071713 0.82849193
-6.330111 4.0797825 0.95913124
-6.3437638 4.088582 1.0910329
-6.350822 4.0931311 1.2228607
-6.3787394 4.1111236 1.3601434
-6.4142408 4.1340046 1.5011605
-6.4229479 4.1396165 1.6377174
-6.4863992 4.180511 1.7907313
-6.541234 4.2158523 1.9449481
-6.5992031 4.2532139 2.1036847
-6.5101051 4.0651064 -0.32427716
-6.4930682 4.0544682 -0.19398327
-6.4690599 4.0394769 -0.064409755
-6.4428473 4.0231085 0.064148761
-6.4113412 4.0034351 0.19154163
-6.4085169 4.0016718 0.31921691
-6.3895893 3.9898529 0.44583836
-6.3712354 3.9783919 0.5720101
-6.3786278 3.9830081 0.70060283
-6.3577518 3.9699724 0.82622212
-6.3876038 3.9886131 0.95909393
-6.388247 3.9890146 1.088752
-6.4168034 4.006846 1.2243968
-6.445755 4.0249243 1.3620094
-6.4635816 4.0360556 1.4990342
-6.4873466 4.0508952 1.6391855
-6.5386343 4.082921 1.788835
-6.6026435 4.12289 1.9454614
-6.6572552 4.1569915 2.1030076
-6.5608373 3.967417 -0.32394233
-6.5446801 3.9576466 -0.19381297
-6.5302296 3.9489081 -0.064449415
-6.4955621 3.9279442 0.064107269
-6.475503 3.9158142 0.19176437
-6.4543757 3.9030385 0.3186858
-6.4362798 3.8920956 0.44516346
-6.4394855 3.8940341 0.57307482
-6.4344721 3.8910027 0.70054758
-6.4381223 3.8932099 0.82933998
-6.4503436 3.9006002 0.96003294
-6.4547753 3.90328 1.090457
-6.47403 3.9149237 1.2244986
-6.4882121 3.9234998 1.3589749
-6.5187917 3.9419916 1.4985992
-6.5638332 3.9692287 1.643988
-6.5893364 3.9846509 1.7869196
-6.6394973 4.0149837 1.9391886
-6.7050486 4.0546231 2.0995569
-6.6155896 3.8723176 -0.3238759
-6.6159458 3.8725259 -0.19426204
-6.5663829 3.8435152 -0.06425669
-6.5658007 3.8431745 0.064250991
-6.5379272 3.8268592 0.19197121
-6.5126872 3.8120854 0.31883815
-6.4976382 3.8032768 0.44559646
-6.4995251 3.8043811 0.57351315
-6.478899 3.7923079 0.69940305
-6.4885917 3.7979817 0.82875359
-6.4985952 3.8038371 0.95901275
-6.5122695 3.811841 1.0908408
-6.5278244 3.8209457 1.2242036
-6.5516663 3.8349011 1.3606292
-6.5762053 3.8492646 1.4989785
-6.6023798 3.8645854 1.6396201
-6.6480622 3.8913248 1.7875575
-6.7061596 3.9253311 1.9420499
-6.7662158 3.9604838 2.1007442
-6.6713443 3.7778113 -0.45375416
-6.6722035 3.7782981 -0.32396674
-6.6731949 3.7788594 -0.19433494
-6.6409526 3.7606013 -0.064453065
-6.6116862 3.7440286 0.064169027
-6.5826116 3.7275646 0.19169702
-6.5668497 3.7186389 0.31885132
-6.5597734 3.7146316 0.44616562
-6.5507107 3.7094998 0.57328588
-6.5404024 3.7036624 0.700248
-6.5482626 3.7081134 0.82951093
-6.5549417 3.7118957 0.95938915
-6.5659151 3.7181096 1.0908005
-6.587244 3.7301877 1.2252085
-6.6286893 3.7536569 1.3653271
-6.6355815 3.7575598 1.5000994
-6.668323 3.7761006 1.6424056
-6.7160711 3.8031392 1.7910235
-6.7661381 3.8314908 1.9433383
-6.825458 3.8650823 2.1017458
-6.733058 3.6865046 -0.45431617
-6.7389846 3.6897497 -0.32461169
-6.7293806 3.6844912 -0.19441544
-6.7077127 3.6726277 -0.064584196
-6.6584544 3.6456575 0.064109921
-6.6376028 3.6342406 0.19176392
-6.6293635 3.6297295 0.31933132
-6.6121664 3.6203136 0.44615895
-6.605051 3.6164179 0.57345271
-6.6022768 3.6148989 0.70126098
-6.6046829 3.6162164 0.83001626
-6.607873 3.6179631 0.95945853
-6.6276064 3.6287675 1.0923086
-6.6476464 3.63974 1.2266277
-6.6636381 3.6484957 1.3616298
-6.6910305 3.6634936 1.5006267
-6.7259226 3.6825979 1.6434414
-6.770021 3.7067428 1.7910783
-6.8383198 3.744138 1.9484781
-6.897059 3.776299 2.1069338
-6.8007374 3.5980213 -0.45536125
-6.7828946 3.5885811 -0.32421938
-6.7978306 3.5964832 -0.19488581
-6.7512517 3.57184 -0.064504541
-6.7286911 3.5599041 0.064288989
-6.6997981 3.5446179 0.19207533
-6.6791167 3.5336759 0.31925884
-6.6704836 3.5291085 0.44663975
-6.6629844 3.525141 0.57404298
-6.6631684 3.5252385 0.70229727
-6.6662488 3.5268679 0.83132398
-6.6654463 3.5264435 0.96039075
-6.6836424 3.5360703 1.0930903
-6.7084432 3.5491915 1.2283461
-6.7344522 3.562952 1.3655391
-6.7587786 3.5758221 1.5041878
-6.7897625 3.5922148 1.6463082
-6.8452826 3.6215885 1.7970914
-6.8867202 3.6435113 1.9472098
-6.9551153 3.6796968 2.1083636
-6.8547974 3.5019867 -0.455578
-6.844759 3.4968584 -0.32475075
-6.839088 3.4939611 -0.19461493
-6.805232 3.4766648 -0.064538226
-6.7850122 3.4663348 0.06434647
-6.7662315 3.4567401 0.1925417
-6.7380924 3.4423645 0.31968993
-6.7316036 3.4390495 0.44739038
-6.7289419 3.4376895 0.57542729
-6.7319598 3.4392314 0.70428717
-6.7217836 3.4340324 0.83203465
-6.736764 3.4416857 0.96346986
-6.7340508 3.4402995 1.093169
-6.7564807 3.4517589 1.2279698
-6.7829351 3.4652739 1.3651727
-6.8113384 3.4797845 1.5046462
-6.8490577 3.4990547 1.6483729
-6.8972158 3.5236576 1.7973003
-6.9398904 3.5454593 1.9476953
-7.0203295 3.5865541 2.1123543
-6.9193878 3.4110017 -0.45657915
-6.907722 3.4052508 -0.32539219
-6.8998923 3.401391 -0.19493981
-6.8669963 3.3851745 -0.064657837
-6.829257 3.3665702 0.064302489
-6.820734 3.3623691 0.19270338
-6.7895608 3.3470016 0.31982613
-6.8061228 3.355166 0.44910526
-6.7852435 3.3448732 0.57608873
-6.767746 3.3362477 0.70296317
-6.7767944 3.3407083 0.83283985
-6.7822161 3.3433809 0.96302754
-6.7966371 3.3504899 1.0954317
-6.824326 3.3641396 1.2314227
-6.8489647 3.3762856 1.3685956
-6.8696337 3.3864746 1.5066618
-6.8941998 3.3985848 1.647361
-6.9430103 3.4226465 1.7962837
-7.005127 3.4532678 1.951932
-7.078177 3.4892786 2.1145158
-6.9682512 3.3119802 -0.45662853
-6.9568038 3.3065393 -0.32544145
-6.9548864 3.3056281 -0.19513677
-6.918335 3.2882552 -0.064691439
-6.9064546 3.2826087 0.064580351
-6.8896265 3.2746103 0.19330573
-6.8475542 3.2546134 0.32033071
-6.8456316 3.2536998 0.44859329
-6.8316207 3.2470403 0.57602131
-6.8198342 3.2414384 0.70348233
-6.8463964 3.2540631 0.83558393
-6.8339539 3.2481492 0.96367359
-6.847537 3.2546055 1.096015
-6.8546667 3.2579939 1.228357
-6.9057379 3.282268 1.370412
-6.9253526 3.2915907 1.5083946
-6.9708714 3.3132255 1.6541803
-7.0128474 3.3331769 1.8018241
-7.0629091 3.3569708 1.9544436
-7.1499863 3.3983581 2.1212194
-7.0194511 3.2139778 -0.45692229
-7.0162444 3.2125094 -0.32603765
-7.0211892 3.2147734 -0.19568595
-6.9878979 3.1995304 -0.064907022
-6.9684272 3.1906154 0.064726166
-6.9238682 3.1702132 0.19297355
-6.9241114 3.1703246 0.3217563
-6.9018111 3.160114 0.44926465
-6.9059963 3.1620305 0.57841706
-6.8799605 3.1501095 0.70496124
-6.8971524 3.1579812 0.83617616
-6.9045281 3.1613581 0.96714562
-6.9157391 3.1664913 1.0995642
-6.9340005 3.1748526 1.2343037
-6.9653349 3.1891994 1.3730394
-6.9823103 3.1969721 1.5106788
-7.0288305 3.2182722 1.6568332
-7.0697994 3.2370305 1.8043675
-7.1350632 3.2669127 1.9612695
-7.2071242 3.299907 2.1239402
-7.0797148 3.1197891 -0.4578914
-7.0801129 3.1199644 -0.32689688
-7.0721011 3.1164339 -0.19584163
-7.0426068 3.1034369 -0.06499593
-7.0106025 3.0893338 0.064700559
-6.9955201 3.0826874 0.19372094
-6.9688268 3.0709245 0.32175866
-6.9448733 3.060369 0.44917032
-6.9672656 3.0702367 0.57980859
-6.9438901 3.0599358 0.70695162
-6.9629745 3.0683458 0.83874571
-6.9564109 3.0654533 0.96816784
-6.9694176 3.0711849 1.1009967
-6.9871578 3.0790024 1.2357945
-7.0199304 3.0934441 1.3749324
-7.0416346 3.1030085 1.5137495
-7.0869532 3.1229787 1.6598269
-7.134851 3.1440856 1.8092991
-7.2111402 3.1777039 1.9694771
-7.2588673 3.1987355 2.1254785
-7.1374702 3.0240042 -0.45878035
-7.134501 3.0227463 -0.32737687
-7.1331587 3.0221775 -0.19631442
-7.117393 3.0154979 -0.065281093
-7.0644584 2.9930706 0.064795576
-7.0428343 2.9839089 0.19382858
-7.0273819 2.9773622 0.32246155
-7.0059695 2.9682901 0.45032781
-7.014709 2.9719927 0.58015728
-7.0265541 2.9770114 0.71095651
-7.0003371 2.9659038 0.83804679
-7.0205326 2.9744604 0.97106719
-7.0189557 2.9737921 1.1019853
-7.052217 2.9878843 1.2396103
-7.0732508 2.9967959 1.3768334
-7.1047244 3.0101304 1.5178944
-7.1546216 3.031271 1.665343
-7.1859875 3.04456 1.8110303
-7.2529931 3.0729489 1.9686933
-7.3297362 3.1054637 2.1329958
-7.2037754 2.9312098 -0.46029836
-7.1993508 2.9294093 -0.32839495
-7.2060113 2.9321194 -0.1971442
-7.1554227 2.911535 -0.065240987
-7.1360235 2.9036415 0.06506411
-7.1027298 2.8900945 0.19431861
-7.088726 2.8843963 0.32334885
-7.0716662 2.8774545 0.45185697
-7.0670824 2.8755896 0.58102524
-7.0591192 2.8723493 0.71001887
-7.0809808 2.8812447 0.84267759
-7.0599341 2.8726807 0.97073025
-7.0764036 2.8793824 1.104421
-7.1104279 2.8932266 1.2424358
-7.135386 2.9033823 1.3806976
-7.1658816 2.9157908 1.521888
-7.2084174 2.9330986 1.6679219
-7.2578897 2.9532287 1.8183118
-7.3194957 2.9782963 1.9749708
-7.3880858 3.0062056 2.1372352
-7.2671237 2.8364487 -0.46170464
-7.2627983 2.8347604 -0.3294045
-7.2556643 2.8319759 -0.19737343
-7.2176266 2.8171291 -0.065433785
-7.1916609 2.8069944 0.065198384
-7.1685352 2.7979684 0.19500329
-7.1464663 2.7893546 0.32412827
-7.1408329 2.7871556 0.45368096
-7.113389 2.776444 0.58150548
-7.1284103 2.7823069 0.71290964
-7.1264086 2.7815256 0.84325939
-7.1301384 2.7829816 0.97480631
-7.1417184 2.7875013 1.1082742
-7.1631999 2.7958858 1.2445369
-7.1913629 2.8068781 1.3836132
-7.2275629 2.8210075 1.526256
-7.2745876 2.8393619 1.6736575
-7.3230972 2.8582957 1.8242117
-7.3802409 2.8805997 1.9800334
-7.4573889 2.9107113 2.1450114
-7.3249359 2.7388668 -0.46283954
-7.3191748 2.7367127 -0.33015099
-7.3057814 2.7317047 -0.19765288
