# .PCD v0.7 - Point Cloud Data file format
VERSION 0.7
FIELDS x y z
SIZE 4 4 4
TYPE F F F
COUNT 1 1 1
WIDTH 1328
HEIGHT 1
VIEWPOINT 0 0 0 1 0 0 0
POINTS 1328
DATA ascii
0.015470506 0.22338699 0.038231
0.024439534 0.22558029 0.039486859
0.030153427 0.22099629 0.039815728
-0.0022083602 0.23135257 0.039560709
0.0069261449 0.23702021 0.039543137
0.015825242 0.23381937 0.039467745
0.023128305 0.2302323 0.039842483
0.012372202 0.24017446 0.039915394
-0.0027927412 -0.4407995 0.049964607
0.0073650209 -0.44368768 0.0490239
0.012515521 -0.44350246 0.049137492
-0.0044896519 -0.43387309 0.048722297
0.0038317367 -0.43542579 0.047641121
0.01560442 -0.43461046 0.047742832
0.022898534 -0.43329024 0.048459448
-0.0048975451 -0.42388314 0.047302488
0.0045108167 -0.42449364 0.045798756
0.014328336 -0.42510316 0.045947716
0.024552884 -0.4251608 0.045892585
-0.012320369 -0.41501957 0.048906635
-0.0044852085 -0.41555843 0.045344517
0.0062168259 -0.41417661 0.044385295
0.013216658 -0.41589916 0.044570819
0.024990181 -0.4154501 0.046562921
0.03096815 -0.41656286 0.04952848
-0.013324778 -0.40762928 0.048470683
-0.0053963661 -0.40620586 0.045355245
0.0048824754 -0.40602142 0.043531567
0.015374706 -0.40399128 0.043585416
0.025343398 -0.40510494 0.045939222
0.032649048 -0.40578148 0.048960522
-0.014339976 -0.39512727 0.047657549
-0.0051836474 -0.39445648 0.044271551
0.0062893853 -0.39529619 0.042549483
0.014641172 -0.3950195 0.04276875
0.025509784 -0.39550138 0.045107592
0.033580624 -0.39642233 0.048469625
-0.020353638 -0.3831681 0.049871724
-0.015625687 -0.38454047 0.047463324
-0.0075818375 -0.38558751 0.044281498
0.0059482884 -0.38623226 0.041952234
0.014582962 -0.3848348 0.042114872
0.024497963 -0.38527614 0.044108726
0.035617467 -0.38467905 0.048582148
-0.02114103 -0.37304008 0.049751136
-0.0163227 -0.37432498 0.047163241
-0.0058429237 -0.37597835 0.043316916
0.0046734242 -0.37569839 0.041518435
0.014067995 -0.37357125 0.041507218
0.023846941 -0.37485963 0.043303911
0.032590743 -0.37396458 0.046459943
-0.020835454 -0.3648417 0.049256366
-0.015940305 -0.36504623 0.046650358
-0.0039392579 -0.36438191 0.042455386
0.0064244908 -0.36551502 0.041059505
0.016043 -0.36549872 0.041475978
0.025138808 -0.36512995 0.043405108
0.035985917 -0.36422524 0.047845654
-0.021304188 -0.35646591 0.049373578
-0.013673269 -0.35534304 0.045478966
-0.0048257965 -0.35555699 0.042540681
0.0040507955 -0.35463917 0.041120239
0.013296979 -0.35610357 0.041053005
0.026287811 -0.35366261 0.043553937
0.036464769 -0.35570046 0.047947701
-0.021367814 -0.3448211 0.049369194
-0.016250769 -0.34490946 0.04664493
-0.0043177204 -0.34412503 0.042412706
0.0048698075 -0.34428987 0.041023064
0.014464363 -0.34364405 0.041110415
0.02473565 -0.34480655 0.043101687
0.035154246 -0.34420171 0.047211785
-0.021055344 -0.33429116 0.049179561
-0.014900553 -0.33438206 0.046043284
-0.0058644582 -0.33503199 0.042787857
0.0051150671 -0.33353931 0.040961906
0.014634857 -0.3333717 0.041155312
0.026266135 -0.33418611 0.043543324
0.035979476 -0.33704805 0.04761469
-0.021746211 -0.32587025 0.049595945
-0.014839863 -0.32462296 0.045975138
-0.005200386 -0.32362908 0.042594861
0.0049430723 -0.32387865 0.040995508
0.015701316 -0.32636583 0.041282639
0.026174499 -0.32547405 0.043536302
0.035512894 -0.32721445 0.047422618
-0.020951595 -0.31512898 0.049117506
-0.014697227 -0.31558812 0.045916338
-0.003700447 -0.31549805 0.042256892
0.0044890344 -0.3160359 0.041035853
0.014519756 -0.31591764 0.041143954
0.024822138 -0.3158868 0.04314417
0.035833593 -0.315128 0.04756166
-0.020991519 -0.30062112 0.049140368
-0.015591367 -0.30651319 0.046330225
-0.0056919102 -0.30621198 0.042751525
0.0032811107 -0.30555788 0.041139506
0.014125344 -0.30514252 0.041117772
0.024668457 -0.30587652 0.043111913
0.036765721 -0.30520457 0.048093766
-0.020961041 -0.29719359 0.049121544
-0.015803114 -0.29515442 0.046442155
-0.0050617005 -0.29435036 0.042590201
0.00364632 -0.29384542 0.041119784
0.015371761 -0.29481909 0.041217167
0.025101369 -0.29689106 0.043215808
0.036221247 -0.29474351 0.047812112
-0.02148507 -0.28457263 0.049439132
-0.014990554 -0.28511363 0.046041571
-0.0034387663 -0.28479096 0.042148963
0.002752813 -0.28586435 0.04115396
0.01444597 -0.28392506 0.041177504
0.023789423 -0.2846593 0.042846005
0.034254197 -0.28680336 0.046778321
-0.021638786 -0.2729646 0.049530782
-0.015534824 -0.27551818 0.046315636
-0.0055300076 -0.27499714 0.042697731
0.0041502318 -0.27547035 0.04104637
0.01581306 -0.27495345 0.041291162
0.02468328 -0.2737256 0.043077305
0.036497787 -0.27572715 0.047903135
-0.021121493 -0.26377109 0.049217746
-0.014272121 -0.26678646 0.045672335
-0.0062797745 -0.26648054 0.042895973
0.0044021006 -0.26515883 0.041045606
0.013579929 -0.26542136 0.041053686
0.026026327 -0.26316497 0.043475386
0.035137571 -0.26425597 0.047178965
-0.021467872 -0.25644648 0.04942739
-0.014554293 -0.25664276 0.0458952
-0.0056276405 -0.25537255 0.04274239
0.0029315106 -0.25349054 0.041137159
0.01491766 -0.25463897 0.041202031
0.024862239 -0.25587854 0.043151546
0.035776559 -0.25535601 0.047541361
-0.014805227 -0.24515845 0.045967888
-0.0048098005 -0.24403486 0.042502727
0.0048334007 -0.24485005 0.040987223
0.016852671 -0.24428183 0.041413799
0.024896678 -0.24457455 0.043126106
0.036390852 -0.24588086 0.047846835
-0.021706462 -0.23714468 0.049571618
-0.014187347 -0.2340384 0.045694295
-0.0044539329 -0.2360999 0.042425092
0.0035006686 -0.23456407 0.041105635
0.014491432 -0.23466723 0.04113178
0.027196778 -0.2347779 0.043824401
0.035594817 -0.23543513 0.047411397
-0.021233464 -0.22276747 0.049284231
-0.01501155 -0.22595598 0.046078287
-0.0048794765 -0.22418259 0.042553596
0.005042925 -0.22463334 0.040982418
0.014391216 -0.22370687 0.041183241
0.024697583 -0.22495201 0.04311097
0.035499785 -0.22500215 0.047374602
-0.021340027 -0.21450268 0.049348343
-0.015748531 -0.21561413 0.046439309
-0.0073369816 -0.2150276 0.043163575
0.0052138455 -0.21471588 0.040946703
0.014841107 -0.21519199 0.041212004
0.023840031 -0.21429174 0.042878058
0.035805646 -0.21609262 0.047551796
-0.021127587 -0.20403795 0.049219921
-0.015424034 -0.20566191 0.046257798
-0.0039941212 -0.20517023 0.042307295
0.004239379 -0.20527279 0.041048367
0.016095879 -0.20393215 0.041322157
0.024651099 -0.20421086 0.043111306
0.035168044 -0.20346186 0.047191091
-0.020618508 -0.19123316 0.048914403
-0.015786814 -0.19625832 0.046430878
-0.005424249 -0.19552125 0.042662509
0.0032263026 -0.19617604 0.041123666
0.015105955 -0.19527537 0.041220095
0.02435508 -0.1948624 0.042998057
0.037610043 -0.19441327 0.048520807
-0.021174558 -0.18292423 0.049250122
-0.014093473 -0.18547368 0.045644354
-0.0048379316 -0.18314381 0.042570394
0.0052022273 -0.18527295 0.040979236
0.014733488 -0.18408066 0.041202638
0.025070194 -0.18576658 0.043175403
0.035526916 -0.18670826 0.047390874
-0.021428211 -0.17554148 0.049401183
-0.01422812 -0.17511496 0.045690827
-0.0058795349 -0.17501508 0.042801
0.0031914928 -0.17482968 0.041191936
0.017043782 -0.17445335 0.041425601
0.024431815 -0.17597687 0.043042418
0.035253976 -0.17671177 0.04727558
0.040062018 -0.17707489 0.049944222
-0.020895284 -0.16800481 0.049080625
-0.013165831 -0.16508839 0.045223534
-0.0036423621 -0.16709854 0.042217445
0.0057049263 -0.16616058 0.040944129
0.016472302 -0.16574146 0.041373361
0.026192239 -0.16422865 0.04349529
0.03558607 -0.1643503 0.047443058
0.040081553 -0.16873911 0.049957559
-0.020783208 -0.15610105 0.049014565
-0.015174448 -0.15506512 0.04616053
-0.0057934211 -0.15354671 0.042773563
0.0037579697 -0.15431659 0.041063953
0.014994925 -0.15660526 0.041219234
0.025803009 -0.15521923 0.043400336
0.037501924 -0.15460241 0.048421349
-0.022391515 -0.14487293 0.049994782
-0.015513768 -0.14671731 0.046248913
-0.005262888 -0.14454685 0.042634811
0.0029698955 -0.14543965 0.04115703
0.01504756 -0.14518578 0.041187271
0.026876865 -0.14432667 0.043737143
0.036372818 -0.14427269 0.047869537
-0.020793214 -0.13897979 0.049018882
-0.014158114 -0.13443238 0.045698959
-0.005645752 -0.13673533 0.042735703
0.0036603743 -0.1348159 0.041098304
0.01415988 -0.13567698 0.041123722
0.025113687 -0.13643521 0.043220352
0.034798946 -0.13465637 0.047042888
0.040061466 -0.13495043 0.049944747
-0.020482669 -0.12538178 0.048835639
-0.015444021 -0.12650575 0.046281811
-0.006062957 -0.12528732 0.042805512
0.0048728106 -0.12499317 0.041022137
0.015240559 -0.12588273 0.041220143
0.025969518 -0.1261313 0.043429319
0.034689926 -0.1240854 0.046977494
0.040036008 -0.12442496 0.049927827
-0.02078867 -0.11511242 0.049018715
-0.016519437 -0.11465309 0.046748146
-0.0060784402 -0.1152226 0.042825423
0.0059873578 -0.11432579 0.040908482
0.014957543 -0.11372425 0.041180287
0.025546841 -0.11439991 0.043351058
0.03484967 -0.11388201 0.047071081
-0.021586491 -0.10689579 0.049498122
-0.014681763 -0.10428458 0.045865282
-0.0040951055 -0.10564972 0.042373069
0.0061112861 -0.10446483 0.040912401
0.01502978 -0.10384706 0.041204754
0.023067657 -0.10639168 0.042629786
0.035755441 -0.10578978 0.047525909
-0.021570357 -0.095474266 0.049484648
-0.015375105 -0.095390379 0.046249103
-0.0046556238 -0.094810396 0.04247243
0.0033187114 -0.09406206 0.041146163
0.013248525 -0.094663337 0.041019823
0.024796944 -0.095812812 0.043171879
0.03617581 -0.096483804 0.047793247
-0.021242877 -0.087371588 0.049291719
-0.014799543 -0.084959239 0.045965273
-0.0047990507 -0.086366057 0.0425198
0.0034897805 -0.083539158 0.041175891
0.014432719 -0.084685557 0.041132085
0.024666946 -0.086327866 0.043099776
0.033503309 -0.084153898 0.046369851
-0.020634687 -0.075685769 0.04892759
-0.013931764 -0.075396858 0.045568701
-0.0053579095 -0.074794427 0.042681292
0.0061384062 -0.073917158 0.040919755
0.014973793 -0.07463105 0.041168712
0.02661561 -0.07322669 0.043643888
0.034229621 -0.076521769 0.046779357
-0.02166904 -0.06511537 0.049487598
-0.014896418 -0.063496307 0.045982607
-0.0053900541 -0.064420834 0.042658806
0.0056551001 -0.064094536 0.040983301
0.015415439 -0.06338717 0.041223031
0.024806423 -0.065590441 0.043133214
0.033542197 -0.063611984 0.04638157
0.040382113 -0.063118905 0.049635623
-0.022950361 -0.055311173 0.048549928
-0.014757342 -0.055837523 0.045688223
-0.0051890998 -0.053310096 0.042562596
0.0045114416 -0.055634622 0.041050013
0.014688913 -0.054443572 0.041157641
0.026098551 -0.053901847 0.043343734
0.035386991 -0.054455824 0.046538867
0.04283442 -0.054569185 0.049175438
-0.023625089 -0.044205219 0.047700405
-0.014558072 -0.045305967 0.04440476
-0.0051331362 -0.045195915 0.042075213
0.0037933786 -0.043909982 0.040831715
0.014715967 -0.04482694 0.041025765
0.026351713 -0.044491157 0.042828213
0.036760885 -0.044819169 0.04685282
0.044783454 -0.045111835 0.048767537
-0.032703537 -0.031922705 0.049555752
-0.024955131 -0.035902288 0.046570126
-0.015852368 -0.035237733 0.044815172
-0.0060521457 -0.035611711 0.04169162
0.0052165817 -0.03380039 0.040968165
0.016438387 -0.034354225 0.041190259
0.025905728 -0.035302144 0.042201046
0.035662901 -0.034812901 0.045238595
0.044775262 -0.034611721 0.047296926
-0.032821432 -0.023886681 0.048494443
-0.025125599 -0.024669338 0.046231389
-0.015157682 -0.025304154 0.043657996
-0.0048997947 -0.025330001 0.042307083
0.0056158537 -0.024593994 0.040967539
0.015417351 -0.023618929 0.041202929
0.0254889 -0.025371509 0.04244256
0.034965463 -0.025525963 0.046177909
0.045989804 -0.02451393 0.04624242
0.052138329 -0.022301191 0.049205542
-0.033461872 -0.014894073 0.047745951
-0.023783425 -0.014082481 0.044261646
-0.016766926 -0.016189853 0.045018759
-0.0048347963 -0.016029838 0.042503972
0.0053193634 -0.014592629 0.040994901
0.01681713 -0.013305369 0.041414887
0.024992369 -0.015862344 0.043152399
0.034101516 -0.014040316 0.045135509
0.046381433 -0.013715023 0.045140024
0.052520577 -0.014374227 0.048422098
-0.035111461 -0.0046663233 0.047426131
-0.024541371 -0.0061723753 0.043429758
-0.015285389 -0.0062758648 0.043935776
-0.0046457015 -0.0057573589 0.042475902
0.0027817104 -0.0073401723 0.0411691
0.01489083 -0.0050241603 0.041201029
0.02324681 -0.0079822065 0.042664178
0.036171641 -0.0055282069 0.044680867
0.044366393 -0.0059467433 0.043335453
0.053243108 -0.0061150431 0.047839951
-0.040687975 0.0089917462 0.049488414
-0.034819197 0.0052079214 0.046122637
-0.022537908 0.0047874679 0.043178629
-0.014532733 0.0051981481 0.04580779
-0.0053134998 0.0058546839 0.042615194
0.0042691086 0.004608131 0.041032054
0.013744805 0.0055641714 0.04106361
0.026685016 0.0053896401 0.043677177
0.034963805 0.004139727 0.047150046
0.045462005 0.0053352388 0.043553106
0.054385934 0.0047847517 0.047259755
-0.0418722 0.012716737 0.049897965
-0.035641711 0.016078904 0.04526813
-0.028189301 0.01539176 0.04168259
-0.014763933 0.014993935 0.045938559
-0.0056738788 0.015491242 0.042751651
0.0056235539 0.015943263 0.040942859
0.014543006 0.015544576 0.041111205
0.025428895 0.013981896 0.043288104
0.034878533 0.015205427 0.047126517
0.045021158 0.014790915 0.041458335
0.055100992 0.014890803 0.04640599
-0.042143725 0.024614004 0.048257258
-0.034644816 0.025704086 0.043547645
-0.024042903 0.028619194 0.04650249
-0.016429264 0.026141997 0.046688821
-0.0067369752 0.025424719 0.042995412
0.0044728722 0.024041159 0.041035708
0.013762143 0.025623931 0.041047715
0.024973232 0.024133829 0.043128531
0.03557311 0.027084349 0.047456849
0.045837808 0.026311785 0.042587996
0.054684296 0.025559295 0.04480638
0.061274111 0.027794687 0.048807509
-0.043461066 0.033540994 0.047903471
-0.037304703 0.035992514 0.043772876
-0.025476491 0.036290787 0.044907365
-0.013297811 0.036266774 0.045287926
-0.0039666048 0.035545632 0.042281926
0.0045206193 0.035767116 0.041023917
0.014017632 0.035648178 0.041109484
0.025039263 0.034455527 0.043148175
0.035708729 0.035710629 0.047530118
0.046923384 0.035177436 0.040315256
0.057221211 0.035023842 0.04507
0.060967304 0.034652781 0.047547545
-0.04297559 0.044841621 0.046111945
-0.033930592 0.04332171 0.041566391
-0.021547223 0.043074019 0.049475987
-0.014887562 0.045780338 0.045973442
-0.0044485233 0.046801247 0.042401783
0.0060722842 0.044697583 0.040959556
0.015356692 0.045384638 0.041260011
0.025812667 0.044660226 0.043407109
0.034198381 0.044439219 0.046683136
0.049268536 0.047944337 0.040341362
0.054137968 0.04511242 0.042508263
0.063307114 0.044705961 0.048049644
-0.046259392 0.057311568 0.047203396
-0.036253411 0.054275077 0.041643515
-0.021438986 0.056675859 0.049409173
-0.01493427 0.054263685 0.046068899
-0.0048890472 0.055023424 0.042586662
0.0035908981 0.055829208 0.041099451
0.014452367 0.054845147 0.041135658
0.025655191 0.05542602 0.043384727
0.036026191 0.054121397 0.047669884
0.055209793 0.055483513 0.042111643
0.063900143 0.054451026 0.047400858
-0.050615754 0.065684617 0.049909107
-0.045471389 0.065062627 0.045784313
-0.036470138 0.063817911 0.041125063
-0.020869611 0.06614998 0.049068809
-0.014826399 0.066912659 0.045998748
-0.0058449814 0.062982447 0.042740524
0.0043299408 0.066627674 0.041057836
0.015297504 0.06563434 0.041235108
0.02414022 0.06546028 0.04293571
0.035779245 0.063731693 0.047555905
0.04002393 0.067348287 0.049921934
0.055783764 0.064212896 0.0416913
0.065201603 0.065599762 0.047177818
-0.045335241 0.073894851 0.044741102
-0.036878645 0.073984139 0.040655289
-0.021234993 0.074319586 0.049287234
-0.015085939 0.07572969 0.046100397
-0.0026466858 0.075797953 0.041981582
0.0047830446 0.074990168 0.040982988
0.015737662 0.074371137 0.041292865
0.026830219 0.074066915 0.043728929
0.034566533 0.073890612 0.046969317
0.056121677 0.074448995 0.041162282
0.064407967 0.076253667 0.045349136
-0.073327586 0.088226162 0.046423648
-0.051351421 0.082185283 0.048975389
-0.04547454 0.085262582 0.043951821
-0.039513968 0.084917508 0.040877387
-0.02126866 0.085787527 0.049305443
-0.01556527 0.086532816 0.046235569
-0.0044757058 0.085697815 0.042448226
0.0067737163 0.085309155 0.040892392
0.014222559 0.084411822 0.041113243
0.02567156 0.082918718 0.043392159
0.034633901 0.083770782 0.046941791
0.058000635 0.083656847 0.041265383
0.063621931 0.08473444 0.044087373
0.093580581 0.088303968 0.0466858
-0.073043071 0.093624465 0.044587284
-0.051159367 0.096207939 0.047829121
-0.044654623 0.094214015 0.042978562
-0.038866471 0.096448086 0.040224973
-0.02117251 0.095373884 0.04925023
-0.016239686 0.095229872 0.046618715
-0.0062955297 0.095315404 0.042892378
0.0042802729 0.093771972 0.041066434
0.016212281 0.096371926 0.04131246
0.024566766 0.095325939 0.043030594
0.034949288 0.094181374 0.047114398
0.040046588 0.092141598 0.049936619
0.05692545 0.096249804 0.040316232
0.064498208 0.096079558 0.044142187
0.089912601 0.093156911 0.044818282
0.093287252 0.09408275 0.043887105
-0.051375322 0.10597879 0.047736585
-0.045432668 0.10512343 0.042906478
-0.039647859 0.10370073 0.040215302
-0.022131732 0.10846542 0.049820017
-0.015041085 0.10565317 0.046068251
-0.0034293272 0.10633347 0.042152461
0.0039916015 0.10404464 0.041079048
0.014506663 0.10369923 0.041183829
0.026030391 0.10466349 0.04346307
0.035421766 0.10597353 0.047351811
0.040025499 0.10154624 0.049922563
0.058392316 0.10446094 0.040513504
0.065594658 0.10705583 0.044335574
0.07060276 0.10795704 0.04991341
-0.051340494 0.11301938 0.047540516
-0.045082405 0.11544454 0.042465571
-0.039875634 0.11481298 0.040013902
-0.02150071 0.11328185 0.049446411
-0.015294181 0.1146098 0.046133149
-0.0049682017 0.11634199 0.042529285
0.0047359779 0.11404469 0.041003201
0.014233056 0.11300299 0.041110121
0.024944091 0.1163006 0.043136742
0.035074696 0.11388922 0.047187384
0.058833614 0.11222193 0.040453296
0.064651959 0.11587019 0.043634046
0.07047946 0.11617187 0.049574818
-0.051636353 0.12581265 0.047719747
-0.045363601 0.12522703 0.042242028
-0.021766108 0.12440369 0.049607683
-0.016428472 0.12535131 0.046693858
-0.0052953959 0.12581356 0.042599134
0.0047704373 0.1251259 0.041019805
0.014682447 0.12665936 0.041143816
0.025054244 0.12621534 0.043187656
0.034801029 0.12475377 0.047029544
0.059187729 0.12530705 0.040321305
0.063912407 0.12371223 0.043004852
0.070201486 0.1264793 0.049020108
-0.05109797 0.13658608 0.046974916
-0.044783853 0.13453458 0.041975867
-0.022051834 0.13864046 0.049769834
-0.015722202 0.13469701 0.046386324
-0.0042381459 0.13548824 0.042361841
0.0057290774 0.13576184 0.040966839
0.015429246 0.13398394 0.041257046
0.027147174 0.13350272 0.043822389
0.034976497 0.13462381 0.047116268
0.05906897 0.13275923 0.040203653
0.065790623 0.1350937 0.0442104
-0.051891409 0.14483744 0.048238393
-0.046469528 0.14439455 0.04302825
-0.021822123 0.14304747 0.0496337
-0.017250787 0.14638749 0.047142789
-0.00356133 0.14601701 0.042257868
0.00487686 0.14409614 0.040986083
0.014093387 0.14499937 0.04111537
0.026760019 0.14620711 0.04368956
0.036152814 0.1444916 0.04770935
0.059457693 0.14303507 0.040332049
0.066206537 0.14558211 0.044745069
0.070371278 0.14248143 0.049421154
-0.15697384 0.15966976 0.049479298
-0.051812313 0.153634 0.048313782
-0.046055686 0.15510122 0.043027334
-0.020511609 0.1526484 0.048840865
-0.015959784 0.15510535 0.046519578
-0.0044504958 0.1536417 0.042441502
0.0027800358 0.15424703 0.041153513
0.014620443 0.15354159 0.041187961
0.025739372 0.1537599 0.04339651
0.034714814 0.15482378 0.047013521
0.058843661 0.153511 0.040204398
0.0661605 0.15440366 0.044783652
0.070287488 0.15463786 0.049389616
0.17545028 0.15948682 0.049379192
-0.1574918 0.16335273 0.049088109
-0.050866053 0.16494472 0.047174726
-0.045351166 0.16483447 0.042729273
-0.020943142 0.16537176 0.049104523
-0.014369327 0.16510972 0.045706
-0.0041406234 0.16605274 0.042368408
0.0056929039 0.16363944 0.040973872
0.014341559 0.16591695 0.041111864
0.024774086 0.16565457 0.043083843
0.033554554 0.16649923 0.046392191
0.059011281 0.16756395 0.040606417
0.064630114 0.16533265 0.043821219
0.070267834 0.16713756 0.049666539
0.17578992 0.16376717 0.048487842
-0.051222093 0.1731666 0.04807467
-0.045469634 0.1756838 0.042994976
-0.03962592 0.17515895 0.040390037
-0.02148544 0.1742143 0.049435936
-0.015186436 0.17452104 0.046155721
-0.0054675932 0.17513239 0.042686388
0.0056374362 0.17374058 0.040934257
0.014558421 0.17624344 0.041127153
0.026420776 0.17486455 0.043622509
0.035621863 0.17581023 0.047470186
0.058070928 0.17610072 0.040663328
0.065132171 0.17522281 0.044588648
0.07019113 0.17253117 0.049836054
-0.051266957 0.18358509 0.049037706
-0.045919903 0.18416631 0.043951347
-0.038625427 0.18597645 0.040729627
-0.021257665 0.18812461 0.049307227
-0.015919767 0.18396239 0.046483532
-0.0046582636 0.18550877 0.042481679
0.0040494166 0.18557298 0.041076023
0.015629642 0.18577634 0.041291174
0.024423083 0.18497884 0.042996585
0.035087071 0.18464257 0.047214828
0.057031065 0.18635166 0.040905476
0.065825507 0.18454121 0.045985423
-0.045559108 0.19434325 0.044920757
-0.034787513 0.19613366 0.040858876
-0.021700302 0.19368787 0.049575526
-0.016375372 0.19619626 0.046751276
-0.0074482881 0.19634138 0.043201543
0.0043655909 0.1965812 0.041055035
0.015928375 0.19576094 0.041287921
0.026222367 0.19447854 0.043535683
0.034872182 0.19338499 0.047084741
0.055014875 0.19503343 0.041292895
0.065304101 0.19575669 0.047101058
-0.045044716 0.20245732 0.046328772
-0.03544433 0.20411287 0.042183582
-0.028001279 0.20684493 0.040890504
-0.016344786 0.20413351 0.046655834
-0.0053697852 0.20635228 0.042595465
0.0081510516 0.20648226 0.040817894
0.014813491 0.20584877 0.041168727
0.023649987 0.2035836 0.042793341
0.035137076 0.20284654 0.047176275
0.045544345 0.20701408 0.040877074
0.057334367 0.2037552 0.043356422
0.062526889 0.20522436 0.046531461
-0.042606205 0.2126873 0.04688843
-0.03638766 0.2142469 0.044524025
-0.02535492 0.21493743 0.042307168
-0.015483407 0.21498449 0.045493867
-0.0054532927 0.21437253 0.042720463
0.0065371944 0.21490017 0.040891152
0.015076482 0.21531238 0.041183446
0.025330881 0.2161027 0.04328971
0.036210243 0.21478204 0.045990191
0.044581454 0.21415237 0.042959504
0.054727368 0.2143079 0.044618424
0.061629266 0.21404831 0.048163433
-0.041211668 0.22137141 0.048415914
-0.036263138 0.22431745 0.046771362
-0.025849307 0.22529717 0.044096276
-0.016051617 0.22440673 0.04361121
-0.0053841192 0.2249561 0.04228064
0.005420228 0.22462343 0.040950853
0.015323717 0.22517036 0.041211266
0.025288351 0.22630344 0.042275462
0.035181437 0.22648287 0.045815833
0.044820655 0.22566688 0.044484485
0.055417124 0.22517471 0.047656346
-0.034425117 0.23325431 0.048363797
-0.024197303 0.2353656 0.046108339
-0.015277038 0.23487255 0.043832343
-0.0054364847 0.23536491 0.041611195
0.0049114716 0.23534755 0.04096067
0.015125236 0.23452638 0.041258752
0.025211915 0.23503058 0.042558234
0.034188773 0.23456711 0.045018222
0.046953846 0.23463818 0.046522632
0.052204661 0.23242693 0.048095379
-0.033303287 0.24035077 0.049860567
-0.02409674 0.24491325 0.047874887
-0.015596915 0.24673754 0.045838401
-0.0044766041 0.24572343 0.042087473
0.0051019443 0.24534024 0.040939927
0.014775926 0.24515729 0.040956996
0.024175856 0.24562274 0.042459749
0.035173144 0.24473156 0.046138491
0.044455033 0.24446422 0.047882296
-0.022460071 0.25494546 0.048852094
-0.014872168 0.25511947 0.046128452
-0.0069085108 0.25456205 0.04344568
0.005052146 0.2534515 0.041355398
0.016840324 0.25461391 0.041826632
0.026256569 0.25396743 0.043712258
0.035637163 0.25580052 0.047192954
0.04376553 0.25216061 0.049428031
-0.020330254 0.26072964 0.049402587
-0.015415871 0.26403216 0.047089327
-0.0059929178 0.26429275 0.043592393
0.0050893012 0.26555559 0.041831598
0.015450071 0.26430139 0.042052455
0.024286879 0.26432702 0.043769572
0.036478195 0.26570666 0.048723243
-0.014788468 0.2738426 0.047286101
-0.004113296 0.27548605 0.043716371
0.0058163917 0.27342612 0.042172413
0.016254842 0.27540886 0.042656597
0.024419775 0.27380285 0.044267934
0.033198636 0.27515534 0.047606304
-0.014400129 0.28546226 0.047831912
-0.0040482963 0.28525499 0.044352699
0.0047655632 0.28468248 0.042972378
0.014273105 0.28526354 0.043089069
0.024518969 0.28576893 0.045076214
0.033270039 0.28402764 0.04819705
-0.013861855 0.2970356 0.048461638
-0.0048763016 0.29478344 0.045284133
0.0049557444 0.2953485 0.043718301
0.014089648 0.29487789 0.043751873
0.02487288 0.29502487 0.04586247
0.033261262 0.29439709 0.048954684
-0.013064119 0.30363828 0.048663091
-0.0056242724 0.3051323 0.046371698
0.0059386669 0.3051393 0.044521466
0.015349628 0.30532429 0.044839188
0.023590628 0.30595675 0.04643663
0.031248828 0.30531096 0.048986863
-0.013039256 0.31425166 0.049639929
-0.0054723704 0.31495145 0.047266569
0.005515452 0.31534263 0.045537468
0.014998934 0.31437951 0.04573584
0.025249287 0.31336847 0.047628243
0.031426445 0.31212655 0.049696717
-0.0050952937 0.32571837 0.04834241
0.004115704 0.32506359 0.046705212
0.01666048 0.32516983 0.047058739
0.024539443 0.32398799 0.048621267
-0.0031844806 0.33360842 0.048781779
0.0056041232 0.33561775 0.047895093
0.014343407 0.33501923 0.047947321
0.022000097 0.33584276 0.049283314
-0.0021131097 0.34117362 0.049505077
0.0045343381 0.34348047 0.048989121
0.014584514 0.34316194 0.049019583
-0.002779355 -0.47078648 0.05989613
0.0046534338 -0.47376367 0.059080224
0.014401924 -0.47139531 0.058142982
-0.0055578439 -0.4632971 0.057983998
0.0060431864 -0.46586844 0.055528101
0.014747146 -0.4669168 0.056349564
0.02370364 -0.46525294 0.05893103
-0.012764948 -0.45418575 0.058640376
-0.0056535057 -0.45544249 0.055062611
0.0050305151 -0.45653644 0.052543018
0.013042822 -0.45465899 0.051989317
0.026278581 -0.45584914 0.056639623
0.031069221 -0.45156255 0.058010533
-0.015561589 -0.44466266 0.057384111
-0.0054815686 -0.44523993 0.052013379
0.0021427143 -0.44822544 0.050599888
0.017318424 -0.44805673 0.050944962
0.024799207 -0.44466195 0.052458972
0.033908051 -0.44381103 0.057448123
-0.021869058 -0.43603784 0.05972755
-0.014060794 -0.43455571 0.053589124
-0.0080003776 -0.43705347 0.050996602
0.028344218 -0.43575513 0.051827341
0.035775099 -0.43486792 0.056331098
0.040221311 -0.43177226 0.058913991
-0.021956893 -0.4249332 0.056701016
-0.015931237 -0.42720658 0.052976228
-0.0048745209 -0.42594212 0.056380272
0.024532426 -0.42600542 0.054945175
0.034827549 -0.42474335 0.053262368
0.040929146 -0.42389503 0.057549924
-0.024469849 -0.41449344 0.056661911
-0.017837418 -0.41348633 0.051609751
-0.0051002945 -0.41518205 0.054565974
0.0054962132 -0.41388977 0.051442076
0.013827655 -0.41398621 0.050757043
0.02461601 -0.41545638 0.055660497
0.036191575 -0.41446829 0.052190088
0.043552324 -0.4138878 0.057752077
-0.030193768 -0.40046811 0.059641242
-0.024899749 -0.4052282 0.055588141
-0.018406315 -0.40296209 0.050540857
0.03763761 -0.40145963 0.051279571
0.04444062 -0.40567204 0.057119507
-0.03025984 -0.39609429 0.059099816
-0.024992114 -0.39333677 0.054137602
-0.019461202 -0.39466941 0.05027692
0.037915379 -0.39521894 0.050786186
0.044073574 -0.39474779 0.05543261
-0.03066892 -0.38677201 0.058332406
-0.02397079 -0.3854458 0.052573238
0.038588349 -0.38823438 0.050561
0.045892213 -0.38621327 0.056054141
0.050071441 -0.38444921 0.059837863
-0.032781504 -0.3747907 0.059428744
-0.025112379 -0.37528425 0.052694898
0.045683194 -0.37527302 0.054964811
0.050764669 -0.37233117 0.059516158
-0.031680245 -0.36369953 0.057726834
-0.026367726 -0.36299711 0.053084254
0.039882779 -0.3668797 0.050124452
0.044556879 -0.36549029 0.053559549
0.050775032 -0.36317167 0.059089582
-0.031671342 -0.35638332 0.057517357
-0.027551938 -0.35617223 0.053904623
0.04482301 -0.35423493 0.053599052
0.051027812 -0.35471022 0.059122585
-0.032169852 -0.34343314 0.057949249
-0.025297511 -0.34442204 0.052076042
0.044312783 -0.34541059 0.053113796
0.050572127 -0.3437005 0.05859305
-0.032359175 -0.33527678 0.058173656
-0.026283192 -0.33447957 0.052838951
0.046263363 -0.33475539 0.054608222
0.050576724 -0.33603424 0.058597703
-0.031145897 -0.32471204 0.056923728
-0.025961448 -0.3262049 0.052588902
0.045489091 -0.32520366 0.054049373
0.050518651 -0.3217591 0.058537308
-0.03232827 -0.31441495 0.05812395
-0.024749273 -0.3136985 0.051680371
0.04481592 -0.31557515 0.053471752
0.050712455 -0.31681019 0.05873806
-0.032408424 -0.30464068 0.05821145
-0.025760669 -0.30519733 0.05238701
0.045211367 -0.30514151 0.053788058
0.050897151 -0.30584913 0.058929287
-0.031857122 -0.29493091 0.057683226
-0.026339322 -0.29399955 0.052866831
0.045643341 -0.29413953 0.054103594
0.050442602 -0.29539067 0.058458097
-0.031884391 -0.2840791 0.05768764
-0.027802892 -0.28625765 0.054071974
0.04572393 -0.28494391 0.054240439
-0.032353193 -0.27716601 0.058150712
-0.027106453 -0.27492386 0.053458847
0.046452187 -0.27585453 0.054849885
0.050645977 -0.2745032 0.058668524
-0.032209873 -0.26358601 0.05800616
-0.025663067 -0.26350567 0.052347485
0.04588807 -0.26539919 0.054372005
0.050020717 -0.26215005 0.058020398
-0.032746851 -0.25594121 0.058550179
-0.025835751 -0.25594723 0.052500229
0.043425631 -0.25324121 0.05236749
-0.030462649 -0.24103186 0.056271493
-0.025973031 -0.24452451 0.0525662
0.044994533 -0.24484366 0.053583045
-0.031762674 -0.23655684 0.057543356
-0.025978724 -0.23570743 0.052550416
0.045039319 -0.2346545 0.053707551
-0.031604212 -0.22750241 0.057406958
-0.026827198 -0.22583038 0.053221151
0.045762341 -0.22543167 0.054299552
0.050428163 -0.2241606 0.058442041
-0.031967405 -0.21605749 0.057742137
-0.026328586 -0.2154122 0.05282855
0.045513012 -0.21519513 0.054045193
0.051787417 -0.21138923 0.059905343
-0.032078497 -0.20457494 0.057866216
-0.026180312 -0.20585711 0.052748416
0.045550432 -0.20395868 0.054056887
0.050072759 -0.20185328 0.058073409
-0.031572517 -0.19342005 0.057380531
-0.025940027 -0.19634183 0.052559849
0.045455437 -0.19543241 0.054001305
0.05056705 -0.19430169 0.05858551
-0.031658877 -0.18530989 0.057460867
-0.026341058 -0.18500978 0.052880444
0.044529453 -0.18396306 0.053212624
0.051742226 -0.18075271 0.059855651
-0.031730883 -0.17437132 0.057497997
-0.025562564 -0.1764476 0.052270077
0.045173839 -0.17355321 0.053817097
0.051307634 -0.17180282 0.059377652
-0.03281847 -0.16398437 0.058600344
-0.027422028 -0.16679293 0.053710259
0.043592125 -0.16577825 0.052532308
0.050780982 -0.16959909 0.058806822
-0.032705907 -0.15614627 0.058497369
-0.027002543 -0.15469436 0.053367395
0.045262866 -0.15373266 0.053866778
0.050400324 -0.15583253 0.05841215
-0.032101043 -0.14368309 0.057872102
-0.027170405 -0.14534248 0.053484552
0.045371503 -0.14517616 0.053877082
0.050443776 -0.14384587 0.058456998
-0.032553338 -0.13470255 0.05833289
-0.025280491 -0.13684143 0.052056547
0.044931494 -0.13499132 0.053516764
0.050497171 -0.1302906 0.058512114
-0.031775277 -0.12490229 0.057538569
-0.024981158 -0.12595029 0.051854193
0.044662181 -0.12483303 0.053313252
0.050359167 -0.12545501 0.05836904
-0.031217508 -0.11437669 0.056999698
-0.02515555 -0.11528106 0.051972091
0.044628009 -0.11629105 0.053332813
0.050799027 -0.11502596 0.058839351
-0.032009162 -0.10491327 0.057789147
-0.026640248 -0.10377641 0.053071886
0.045464635 -0.10446559 0.054038279
0.050851863 -0.1030024 0.058898509
-0.032112014 -0.094384603 0.057905693
-0.02609352 -0.094623417 0.052658476
0.045530438 -0.092866421 0.054043487
0.050335258 -0.093854569 0.058343776
-0.031596698 -0.084105872 0.05737469
-0.026709095 -0.086480685 0.05313364
0.045401741 -0.084592663 0.05396051
0.051625233 -0.082852527 0.059726551
-0.032082561 -0.075001895 0.057863317
-0.026186315 -0.075656004 0.052757159
0.045128092 -0.074973173 0.053714398
-0.032628413 -0.064854749 0.057492528
-0.027374666 -0.063977949 0.053137362
0.046486828 -0.063642249 0.054453991
0.052344009 -0.064174443 0.058973186
-0.033025615 -0.056092728 0.055990227
-0.027043451 -0.05458419 0.052522372
0.045912262 -0.056178942 0.05274713
0.052240718 -0.054808509 0.056249119
-0.040688191 -0.042761501 0.059866756
-0.034126557 -0.045351785 0.055905089
-0.026619604 -0.045483824 0.053082447
0.047137827 -0.04559008 0.054173023
0.052974548 -0.045118693 0.054681815
-0.041510697 -0.035981372 0.058864564
-0.034577593 -0.03615012 0.054871578
-0.026043056 -0.034048036 0.052651942
0.045023028 -0.035792969 0.05363794
0.056064911 -0.035482217 0.05647444
0.060130432 -0.034520864 0.059749287
-0.042819142 -0.023116972 0.057178978
-0.03427989 -0.02546433 0.054507278
-0.025384659 -0.023991112 0.052106936
0.045032963 -0.025060628 0.053658094
0.054331638 -0.026157139 0.0545648
0.061107665 -0.02471704 0.058305789
-0.044084623 -0.014183882 0.05707271
-0.033897139 -0.015569473 0.055978473
-0.026316047 -0.015836969 0.052851181
0.044904716 -0.015480163 0.05354635
0.054059703 -0.014195864 0.055534195
0.061721437 -0.014488423 0.056888241
-0.044693254 -0.0042060413 0.055818193
-0.032795299 -0.0054603941 0.056207407
-0.026535837 -0.0041495766 0.052999336
0.046876896 -0.0040580239 0.055231307
0.056159742 -0.0052351612 0.053564988
0.062303271 -0.004870587 0.055600941
-0.046107743 0.0055559566 0.055586021
-0.032017704 0.0037281879 0.057803832
-0.027146142 0.0061596879 0.053495035
0.044336639 0.0042821807 0.053103305
0.05944702 0.0041071689 0.051038094
0.064074002 0.0060284189 0.055709545
-0.050785445 0.017588492 0.058580484
-0.046782531 0.014443207 0.054491445
-0.032560516 0.014957061 0.058362279
-0.026381172 0.015258902 0.052850462
0.044431813 0.014965854 0.05312242
0.051375415 0.015744604 0.059453636
0.064849779 0.015161962 0.05471224
-0.053541567 0.027860329 0.05886462
-0.047643125 0.025106015 0.053680047
-0.031929079 0.0238743 0.057716828
-0.028587196 0.027582482 0.054605193
0.045173146 0.0252422 0.053804904
0.050735757 0.027051374 0.058756955
0.066090032 0.02478618 0.054515678
0.070913956 0.027191494 0.058689624
-0.060744137 0.039431341 0.059385747
-0.053410284 0.03523792 0.057613701
-0.048508205 0.037094779 0.052710727
-0.031954341 0.034151874 0.057716262
-0.025906129 0.035170052 0.052550748
0.044488087 0.034391485 0.053218648
0.050909027 0.037398834 0.058952674
0.067388594 0.034704626 0.055280022
0.073300764 0.035663106 0.058557384
-0.06491112 0.045584206 0.05903786
-0.053558324 0.044367246 0.055563934
-0.048719753 0.045117412 0.0507368
-0.032318678 0.045694802 0.058104709
-0.026334235 0.043751825 0.052881435
0.043820515 0.046139833 0.052672707
0.050909501 0.045462519 0.05896667
0.068750329 0.045929816 0.054644778
0.073188044 0.046329446 0.056381904
0.083439782 0.044722501 0.059407122
-0.074416921 0.055687103 0.059352942
-0.064687103 0.054454658 0.057503041
-0.055093735 0.054339256 0.055274796
-0.049099594 0.053563192 0.052165154
-0.031824388 0.056150019 0.05760809
-0.025452962 0.054567751 0.052202869
0.045611199 0.055035699 0.054085832
0.050871633 0.058030967 0.058911059
0.068074599 0.053794671 0.052101068
0.074197479 0.055304635 0.055309646
0.085480712 0.055778485 0.057941154
0.092663676 0.058093674 0.059092361
-0.082142331 0.065090306 0.059666507
-0.074216262 0.065142937 0.058193553
-0.063623853 0.065222032 0.056062967
-0.054768644 0.064936154 0.053617943
-0.049724698 0.063596152 0.053162694
-0.032306861 0.064705491 0.058106203
-0.025845896 0.06552913 0.052482951
0.044400271 0.064155966 0.053166207
0.06823653 0.064325377 0.052302748
0.07423681 0.06412629 0.054495603
0.086703397 0.065103471 0.057164118
0.0952475 0.065071985 0.058818977
0.10200791 0.067434475 0.059814025
-0.084213078 0.075650826 0.059189145
-0.076440103 0.075697333 0.058051292
-0.064836882 0.075210184 0.055664621
-0.053873129 0.074515022 0.052861974
-0.048728026 0.073693171 0.052313749
-0.032875378 0.076620348 0.058663271
-0.02525715 0.075766481 0.052088719
0.046221253 0.074468873 0.054633282
0.050029557 0.079498135 0.05803873
0.068546638 0.076460741 0.052148689
0.075761028 0.074952081 0.054250337
0.085848935 0.074305825 0.056343663
0.095878437 0.07554616 0.058358602
0.10358306 0.075213835 0.059466932
-0.091572188 0.087545991 0.059876263
-0.085035503 0.084123313 0.058948144
-0.07380648 0.085045114 0.055669572
-0.06542594 0.086305179 0.056166127
-0.054499295 0.084601745 0.052946158
-0.04874773 0.085439622 0.052048635
-0.03240978 0.085626714 0.05820201
-0.025604865 0.085371703 0.052277043
0.044950113 0.08461532 0.053601015
0.051045366 0.083552346 0.059092872
0.067999117 0.086503714 0.052391943
0.073773041 0.083109155 0.053175252
0.085804559 0.085234813 0.055401169
0.093417682 0.085328422 0.055629808
0.10410522 0.086114898 0.059114259
-0.091245152 0.09508995 0.059774209
-0.084383875 0.094252862 0.058762051
-0.073844552 0.093690075 0.056292575
-0.064926848 0.095658593 0.055470537
-0.05498825 0.095345624 0.053249646
-0.048354097 0.098159529 0.052220985
-0.030651659 0.097963229 0.056441575
-0.026506195 0.096145645 0.052982721
0.044677217 0.095627695 0.053340193
0.068861276 0.094370939 0.052677222
0.073534049 0.095707037 0.053327814
0.086344175 0.092665084 0.056176562
0.095231801 0.094093196 0.056353811
0.10422273 0.094872326 0.059082329
0.11006378 0.095397145 0.059923373
-0.091433048 0.10286546 0.059952088
-0.085051112 0.10643266 0.059211019
-0.074760981 0.10425071 0.057523824
-0.064187303 0.10428943 0.055667967
-0.054822195 0.10794293 0.053590618
-0.049016491 0.1049729 0.052755378
-0.031907905 0.10499907 0.057685543
-0.026423108 0.1059517 0.052929964
0.045304306 0.10497684 0.053838316
0.067537367 0.10484648 0.052889805
0.07284613 0.10615019 0.053943556
0.085709251 0.10746428 0.056533594
0.095836349 0.10561733 0.058129653
0.10517879 0.10466138 0.059485581
-0.082901515 0.11304843 0.05931038
-0.075385027 0.11383913 0.05824982
-0.063768819 0.11374652 0.056276117
-0.05422708 0.11632872 0.05444609
-0.048840016 0.11415106 0.053446274
-0.031608649 0.11468448 0.057367802
-0.027619621 0.11512148 0.053827956
0.045522172 0.1135065 0.054009967
0.051633634 0.11565266 0.059730686
0.067241795 0.1151623 0.05367713
0.074012421 0.11440501 0.054156441
0.085047096 0.11527394 0.057035446
0.095122926 0.11536609 0.058682509
0.10399749 0.11361468 0.059860051
-0.074693426 0.1238746 0.059107222
-0.063366197 0.12379978 0.057244383
-0.054354928 0.1241196 0.054417517
-0.047883883 0.12380596 0.054357439
-0.032703143 0.1231501 0.058494583
-0.025945917 0.12529898 0.05254221
0.045810461 0.12490354 0.054290734
0.050510727 0.12538037 0.058532424
0.068190739 0.12593868 0.055147864
0.074308753 0.12598886 0.055340391
0.083360761 0.12770598 0.05812772
0.094656184 0.12490839 0.059565704
-0.07314603 0.13232689 0.059959967
-0.063890785 0.13530296 0.058936838
-0.055000976 0.13526271 0.056129202
-0.048842162 0.13402456 0.056039471
-0.032156788 0.13511524 0.057924867
-0.026519857 0.13421167 0.052972835
0.045429576 0.13611917 0.053958163
0.050400812 0.13768537 0.058415335
0.067244001 0.13384439 0.056153778
0.075077787 0.13456303 0.056684893
0.082576737 0.13457337 0.05898786
0.090482123 0.13057075 0.059656736
-0.15659945 0.14783807 0.0595675
-0.06056156 0.14179848 0.059435129
-0.055155724 0.14384094 0.056948718
-0.049121089 0.14611395 0.058121838
-0.032730177 0.14348072 0.058494076
-0.02667561 0.1455356 0.053111568
0.045618054 0.14482057 0.054140192
0.050466858 0.14633167 0.05848182
0.067438371 0.14355943 0.057794373
0.073131837 0.14553407 0.056789201
0.081459776 0.14027025 0.059698984
0.17465974 0.14858989 0.058646645
-0.15716071 0.15547888 0.054997809
-0.053445645 0.15420057 0.056579445
-0.048448373 0.15586743 0.059627138
-0.032385893 0.15520498 0.05815959
-0.025840279 0.15293835 0.052468084
0.04489072 0.15202284 0.053562991
0.05116751 0.15276007 0.059233211
0.067682795 0.15338083 0.059493165
0.071466446 0.15496306 0.055191316
0.17484428 0.15577155 0.055408537
-0.22400743 0.16560934 0.059175503
-0.15765885 0.1648857 0.054416809
-0.053500149 0.16431189 0.053640887
-0.032457482 0.16493084 0.05825061
-0.023723928 0.16171971 0.050900422
0.044931583 0.16536954 0.053603332
0.051394105 0.16343595 0.059470177
0.0713939 0.16466399 0.054301444
0.17452246 0.16481736 0.05391147
0.24346964 0.16873252 0.058201861
-0.22530864 0.17635311 0.056689266
-0.15686756 0.17366014 0.056123912
-0.053442433 0.1763166 0.055004537
-0.03295286 0.17245381 0.058721676
-0.026967505 0.1743312 0.05335138
0.045955792 0.17512192 0.054501876
0.051754069 0.17319195 0.059859622
0.071070813 0.17619485 0.054300051
0.17529373 0.17203432 0.056753222
0.2398646 0.17842028 0.059187371
0.24292038 0.1749679 0.056028634
-0.22378851 0.18296465 0.056915913
-0.052522521 0.18645167 0.054537423
-0.031979322 0.18428105 0.057760887
-0.024924582 0.18336995 0.051815361
0.045910478 0.18602665 0.054308619
0.051070627 0.18278126 0.059129115
0.06964647 0.18591964 0.050623894
0.070633382 0.18364617 0.054623224
0.23980591 0.18178962 0.059865385
0.24139193 0.18367894 0.057473522
-0.051795576 0.19684923 0.056107689
-0.031468872 0.19324744 0.057260305
-0.02671542 0.19490169 0.053155392
0.046100881 0.19437222 0.054451518
0.050442446 0.19206139 0.058456928
0.069367163 0.19632787 0.055369988
0.070145935 0.19151971 0.054629821
0.29794002 0.19396503 0.059855033
-0.28073806 0.20040706 0.059337437
-0.27839965 0.20168611 0.059554748
-0.050568104 0.20451677 0.056098599
-0.049375888 0.20854062 0.055102948
-0.031919401 0.20487593 0.057702217
-0.026883494 0.20438273 0.053259648
0.045349415 0.20375615 0.05397689
0.050782517 0.2085336 0.058806956
0.067486554 0.20552906 0.053652447
0.29765284 0.20014539 0.05849763
-0.047967117 0.21468244 0.054236386
-0.031960879 0.21533185 0.057741113
-0.026154011 0.21608719 0.052712016
0.046343155 0.21504411 0.05477915
0.050685823 0.21665144 0.058714025
0.06607642 0.214496 0.055386271
-0.044347875 0.22492495 0.053545181
-0.03200613 0.22535494 0.057781074
-0.023903532 0.22693203 0.051031105
0.04581736 0.22498855 0.054290686
0.052310601 0.22490658 0.057511911
0.063423514 0.22334161 0.054776911
-0.041798007 0.23408768 0.054341286
-0.036179665 0.23388703 0.053972997
-0.027568214 0.23607688 0.053880829
0.044885058 0.23412572 0.053608753
0.054912418 0.23417217 0.054782491
0.061949838 0.23353454 0.058381639
-0.041334771 0.24197419 0.058359101
-0.03589417 0.24443687 0.054030303
-0.026690539 0.24628706 0.053388465
0.045137726 0.24589558 0.053232878
0.054426685 0.24338211 0.054126706
-0.032934818 0.25334457 0.055658467
-0.026061649 0.25631869 0.052640483
0.03973854 0.25511885 0.050208598
0.045709994 0.25407085 0.053696346
0.051398102 0.25574595 0.056630194
-0.031739604 0.26344252 0.058302015
-0.024168767 0.26465994 0.052025266
0.039366532 0.26310921 0.050143007
0.045562055 0.26503107 0.054701161
0.051289979 0.26323798 0.059744731
-0.025112152 0.27597272 0.053445231
0.039685715 0.2754522 0.051154748
0.044605926 0.27501747 0.054778859
-0.030985262 0.28633136 0.059009846
-0.025528956 0.28562057 0.05446139
-0.019237854 0.28680834 0.050296858
0.038366165 0.28602967 0.051059954
0.04334924 0.28422454 0.054407056
-0.030737445 0.29578942 0.059484534
-0.025759384 0.29445541 0.05529803
-0.017873233 0.29414502 0.050082378
0.038208332 0.29474491 0.05162257
0.04405266 0.29415816 0.055756945
-0.030102858 0.30453146 0.059639078
-0.024465209 0.30397362 0.05514393
-0.017800411 0.30589747 0.051072907
0.037395872 0.30377796 0.051973619
0.044290476 0.30456901 0.056698065
-0.024291152 0.31504565 0.056106083
-0.016692936 0.31550011 0.05148343
0.037025388 0.31514457 0.052830368
0.0436409 0.31473082 0.057145335
-0.025016157 0.32451779 0.057516024
-0.01641392 0.32575026 0.052486498
0.027600616 0.32891589 0.050046243
0.035940401 0.32417881 0.05324905
0.04233142 0.32435185 0.057141088
-0.022996096 0.33556864 0.057413332
-0.014463458 0.33361045 0.052544493
-0.0092561683 0.33481678 0.050558344
0.024852775 0.33625901 0.050078735
0.037333593 0.33683008 0.055498954
0.042250313 0.33300811 0.058106195
-0.023461038 0.34331602 0.058744449
-0.016021052 0.34522179 0.054794267
-0.0059780688 0.34543562 0.051057596
0.024773341 0.3456597 0.051419184
0.036017418 0.34508747 0.055922441
0.042195156 0.34158331 0.059191659
-0.021205619 0.352411 0.058625441
-0.015364993 0.35711077 0.056233894
-0.0063243886 0.3551273 0.052568924
0.0035551121 0.35421044 0.050594889
0.014538911 0.35607696 0.050911237
0.02481534 0.35498407 0.052799165
0.035023633 0.35489047 0.056825802
-0.01569883 0.365655 0.057790782
-0.0048360629 0.36458638 0.053716592
0.0047748489 0.36525923 0.052220244
0.014974572 0.36658064 0.052605983
0.024143556 0.36545491 0.054231361
0.035199665 0.36348176 0.058312226
-0.012876124 0.37402576 0.057960372
-0.0054796189 0.37654316 0.055853028
0.0069655939 0.37641704 0.053974576
0.014984607 0.37543947 0.05414068
0.025196193 0.3758865 0.056315295
0.031904418 0.3738648 0.058442928
-0.0051617716 0.38451868 0.057239659
0.0051740822 0.3861573 0.055831648
0.014788751 0.38491094 0.055806782
0.023109984 0.38458085 0.057322979
0.031551205 0.3817544 0.059672061
-0.0044001639 0.39334837 0.058678687
0.0054712738 0.39426908 0.057335813
0.015811104 0.39655393 0.058133584
0.023093048 0.39487311 0.059202757
-0.00055788975 0.40188533 0.059504904
0.0061292266 0.40465003 0.059375841
0.014507309 0.40317535 0.059288688
-0.0045949994 -0.48134422 0.06977202
0.0053311298 -0.48444659 0.066759832
0.014302294 -0.48297894 0.06596861
-0.011511885 -0.47258493 0.068869717
-0.0039096107 -0.47717652 0.064991832
0.0038498226 -0.47735977 0.061276902
0.01448551 -0.47786132 0.061897706
0.024717819 -0.47411817 0.065258749
0.030792404 -0.47110483 0.069660999
-0.014582454 -0.46370161 0.06538491
-0.0070189168 -0.46897244 0.061517075
0.028007707 -0.46409199 0.061210539
0.032570042 -0.46435511 0.066208348
-0.021396831 -0.45351869 0.067817673
-0.01648357 -0.45539808 0.062596411
0.036496934 -0.45531422 0.065165125
-0.023690078 -0.44476479 0.065786555
-0.018821921 -0.44747144 0.061002027
0.038328368 -0.4443 0.06152425
0.042052928 -0.44438526 0.066372044
-0.03012082 -0.43065631 0.068212748
-0.0260053 -0.4362326 0.064837299
0.042601649 -0.43628159 0.063217916
-0.030873304 -0.42625609 0.067324258
-0.028247116 -0.42601117 0.063522168
0.04718104 -0.42489052 0.064660482
0.05060171 -0.42177048 0.068650641
-0.033175025 -0.4149164 0.06671197
-0.029829107 -0.41647711 0.062448494
0.047758758 -0.41602057 0.062639162
0.05224951 -0.41234723 0.067817539
-0.033272736 -0.40480834 0.064189807
0.048381757 -0.40573466 0.061071217
0.052185331 -0.40442351 0.065743633
-0.03576231 -0.39398307 0.065555632
0.054227509 -0.39452782 0.066640012
-0.036414713 -0.38528323 0.06522011
0.054414392 -0.38491353 0.065388992
-0.040357262 -0.37264776 0.069507465
-0.036312848 -0.37455943 0.063790128
0.054922409 -0.37475261 0.06495858
-0.04033009 -0.36487144 0.068849429
-0.03747597 -0.36548051 0.06473311
0.056373131 -0.36544415 0.066466004
-0.040951926 -0.35657001 0.069471531
-0.036664937 -0.35596573 0.063195139
0.055606734 -0.35498759 0.064904422
-0.040423658 -0.34255445 0.068475991
-0.037782729 -0.34477907 0.064633578
0.055984814 -0.34440607 0.065358639
-0.036936376 -0.33699581 0.063456856
0.056452859 -0.33405438 0.066021062
-0.040407352 -0.32564485 0.068450339
-0.037794959 -0.32606271 0.064626731
0.055022392 -0.3250204 0.064036414
-0.040676594 -0.31290627 0.068890445
-0.037385747 -0.31481588 0.064066388
0.056307301 -0.31531188 0.065779865
-0.040853102 -0.30138597 0.069176793
-0.037216775 -0.30464965 0.063832231
0.056208279 -0.30458897 0.0656804
-0.036925714 -0.2935639 0.063453913
0.055705931 -0.29472926 0.064991169
-0.04034555 -0.284316 0.06835185
-0.036879428 -0.28612483 0.063456275
0.055717468 -0.28395426 0.064903826
-0.04038284 -0.2702027 0.068413503
-0.036628261 -0.27456328 0.063117228
0.056171395 -0.27562803 0.065634057
-0.040703081 -0.26562136 0.068933561
-0.037002474 -0.2661373 0.063542821
0.055203184 -0.26471776 0.064262994
-0.037102882 -0.25419766 0.063703276
0.055778742 -0.25600499 0.064977378
-0.040507827 -0.24424775 0.068618387
-0.036651935 -0.24507093 0.063145526
0.055522881 -0.2454543 0.06467355
-0.040397499 -0.23329118 0.068439528
-0.037935849 -0.23684716 0.064872205
0.055944253 -0.23631023 0.065291986
-0.040395562 -0.22570962 0.068436742
-0.036152475 -0.22519991 0.062479459
0.055300981 -0.22515914 0.064301737
-0.040634025 -0.21705441 0.068825908
-0.03746077 -0.21526647 0.064215951
0.056002919 -0.2149334 0.065454371
-0.040142532 -0.20409966 0.068025112
-0.037749659 -0.20450729 0.064587146
0.055886697 -0.20408539 0.065299466
-0.040303215 -0.19384819 0.068287909
-0.037848134 -0.19506983 0.064712502
0.055186529 -0.19370256 0.064246632
-0.03605802 -0.18370712 0.06240597
0.055837754 -0.18454172 0.065139808
-0.040330049 -0.17700446 0.068332657
-0.037202235 -0.17585742 0.063878767
