# .PCD v0.7 - Point Cloud Data file format
VERSION 0.7
FIELDS x y z
SIZE 4 4 4
TYPE F F F
COUNT 1 1 1
WIDTH 1574
HEIGHT 1
VIEWPOINT 0 0 0 1 0 0 0
POINTS 1574
DATA ascii
-1392.8779 -1126.5464 -20.112499
513.87793 -901.38452 -0.025000002
-550.87512 900.02234 -20
618.25525 732.90955 -4.5099029e-07
440.23611 -547.04211 -20.025
385.41095 2118.0022 -20.025002
393.09064 1931.7742 -0.025000002
1260.1462 1934.0463 -0.024999999
-1372.4373 -611.49207 -20.112499
280.81964 514.45752 -11.683212
376.09085 -2320.7207 -0.025
-1286.451 -63.62751 -0.12500003
219.57686 -2716.0308 -20.025
-706.07275 1091.6194 -0.13750076
-515.56927 -450 -0.95639116
960.04443 96.826126 -20.025
145.66211 -1186.9713 -20.025
-136.75368 -2157.9504 -20.0375
1216.7297 1840.134 -0.025
-317.36288 -427.02802 0.83573437
-1439.7819 196.2122 -0.12500001
419.62808 -2414.5874 -20.025
-737.0235 -342.65744 -20.125
1659.3483 -1624.807 -20.025002
-187.52194 -1074.2737 -0.037500761
-575.41724 325.10608 -0.0125
-1065.7386 -640.0719 -0.12500001
461.94336 843.94421 -0.001
-201.95042 1194.7783 -0.01350076
678.36597 2032.2064 -0.024999999
-312.13705 1926.0012 -0.025
39.538757 -2667.9578 -20.025002
583.03668 -1255.2095 -3.7999999e-07
-1220.5715 -984.0293 -0.1125
295.12259 1078.5745 -0.025000002
869.13495 -1983.0803 -3.7999996e-07
-291.15109 470.98288 -20
-1436.3091 446.52444 -7.151464
-9.0824928 -1123.071 -20.025
826.77448 -2494.6206 -20.025
-170.76907 -219.61523 -20.125
304.58392 -2108.1206 -20.024998
-619.18036 -2280.5178 -0.74531811
-201.16248 -1702.0278 -20.0375
-179.55734 202.40793 0
113.10196 2069.2346 -20.025
885.62537 -2028.2662 -0.012499239
-453.13037 450 -19.791729
1327.8149 -192.47391 -20.025
-1421.4052 789.63208 -20.112499
1121.9441 1488.0404 -0.024999999
587.91516 1277.4773 -3.7999996e-07
1055.2151 225.96194 -20.025
580.81958 -1706.3074 -13.99826
-380.16602 -2030.3518 -0.012499999
-511.43787 -307.25848 0.0125
-1289.9559 1126.0343 -20.112499
1522.0186 95.851151 -20.025
1524.1538 2212.1084 -0.025000002
234.41693 1245.1553 -0.01350076
805.99194 -2448.375 -0.025
621.07593 8.7826309 -5.4999998e-07
-327.34094 -883.5918 -0.012500001
1219.2224 1532.3425 -20.025
-745.57556 548.93567 -0.12500001
-546.88654 -280.94336 -19.987499
-1255.2018 -707.41858 -0.12500058
-292.30402 1064.1431 0
76.810745 -2277.9795 -0.025000002
1543.76 -2213.696 -20.025
246.78885 279.4046 2.2384984e-07
530.79468 -2562.8254 -20.025
1546.5042 -757.34436 -20.025
-588.151 -803.88312 -20.012501
-387.26349 -383.33167 7.4387884
-47.463654 1062.1311 -0.01350076
-45.755829 -1899.3464 -20.0375
-1071.2416 -72.482803 -20.125
-22.379219 -1520.0139 -20.0375
-214.68842 -1149.8103 -20.025
427.15536 119.99481 -20.000999
29.770634 -1891.6541 -20.0375
276.90906 -80.120186 0
673.48401 -516.38672 -3.7999999e-07
-814.19897 928.11243 -0.13750076
-84.521919 -608.19586 -20.025
689.10529 -2738.157 -20.025
1596.1771 415.10818 -20.025002
990.50793 1108.4734 -0.025000002
-845.30402 -1099.5515 -20.125
880.81958 1236.8441 -13.702316
-416.01413 -941.1311 -0.0125
235.31573 2041.1229 -0.025
-463.93811 -2110.5181 -0.0125
-7.0094833 237.35703 0
8.050602 -1153.4454 -0.037500761
683.40485 -953.97131 -0.025
-566.22498 249.99998 -15.388459
208.6353 -1267.7465 -20.025
-1497.4647 380.97992 -0.12500001
824.74591 -546.99231 -3.7999999e-07
-629.0647 125.53313 -20.125
445.9776 -1473.05 -0.025000002
608.21558 -598.25409 -20.025
-612.89746 -2376.157 -20.025
-859.664 123.58295 -20.125
954.52124 1459.5989 -0.025
1535.9015 -999.69373 -0.025
1099.0183 1976.5725 -20.025
999.45209 1485.3926 -0.024999999
871.71497 -1081.1172 -20.025
-547.09448 2150.7393 -20.025
280.81964 2001.3359 -6.5765352
615.22089 475.76062 -20.025
1424.6072 843.30029 -0.025
1224.8739 -193.146 -20.025
309.14862 -948.29779 -20.025
-203.83499 83.79319 -20.125
-1169.7864 -344.46472 -0.12500001
-483.01682 639.84961 -0.012500688
829.98425 -487.97803 -3.7999999e-07
1053.7786 1991.5874 -0.025
-850.67566 -588.77289 -20.125
418.33597 -610.15845 -20.025
1205.0898 -1339.0922 -20.025
777.13324 -596.49908 -20.025002
-5.7266407 -20.734879 3.4252186
-409.70425 -844.74707 -20.012501
1561.7107 -1864.1545 -0.025
-1119.1804 1323.7725 -5.1736488
-449.31445 23.474136 11.913662
771.53241 -1466.8546 -3.7999999e-07
-654.30981 -1159.0494 -0.13750076
842.85779 -2694.8643 -20.024998
375.64148 102.25104 0.0090002296
207.46326 2250 -6.09623
227.23026 204.05688 0
-594.90234 -14.677574 -20.125
-45.371105 1709.8795 -0.013500001
1139.6123 -287.47906 -20.025
268.09204 -574.06824 -20.025
241.59058 -240.11 0
822.01337 1797.2799 -3.7999999e-07
-31.061676 815.01611 -0.01350076
-1442.3905 544.19043 -0.12500024
981.27026 -2436.7603 -0.025000002
488.728 2029.7197 -20.025
-760.04938 719.87207 -20.125
-1119.9561 -1115.9926 -0.1125
1504.0565 2179.4385 -0.025000002
-202.05827 -1645.292 -0.037500512
-503.86472 839.61084 0
157.13278 1053.5386 -0.01350076
1177.314 1014.0449 -0.025
633.24316 -1039.3834 -3.8000002e-07
-1393.6772 54.876892 -20.125
499.32458 -794.48718 -0.025000002
767.3645 -2444.335 -0.025000002
864.1402 -1358.2955 -11.088174
159.37965 -2282.6265 -20.025
-1443.2585 -304.7529 -0.12500001
1413.9214 1940.5162 -0.025000002
673.88025 -2431.0767 -0.025
394.08533 -2233.8235 -0.025
-358.00677 272.11948 -0.012500001
-1355.5024 -537.41101 -0.12500021
1068.5759 1841.7045 -4.0093231
-1105.759 -539.96014 -20.125
711.64514 1839.6121 -0.025
-251.95178 -361.44138 -7.5999998e-07
1476.0186 2081.8318 -0.024999999
776.24774 -2258.2957 -18.024614
-987.55103 1118.8131 -0.13750076
-907.17773 947.0484 -20.125
-707.97882 -782.82971 -0.12500001
-760.45953 -295.69809 -20.125
1180.8196 -674.4021 -4.7709317
-483.89041 2174.728 -0.025000002
-705.53107 294.57101 -0.12500001
-258.41791 1967.1208 -0.025
992.31427 2008.4736 -20.025002
706.38953 -848.61261 -20.025
1125.3129 -1562.7057 -20.024998
161.85535 733.53967 -0.001
-674.02649 -640.25232 -0.12500001
1125.9221 2025.3281 -20.025002
-819.00342 598.6424 -0.12500001
-443.85355 -1038.2124 -20.012501
-224.49496 2234.7231 -20.025002
216.26508 515.54688 -20.000999
-158.10765 -2592.2368 -0.025
178.16078 250 -13.533568
251.771 -2709.0205 -0.025000002
1205.531 -2536.146 -20.025
-569.91107 -1277.3342 -0.012500001
475.46884 -1062.9771 -0.025
844.12927 1841.7045 -17.624428
903.88922 337.23077 -0.012499241
-552.25879 -861.05298 -0.012500001
-472.05832 -2225.9871 -0.0125
-924.89728 357.69678 -0.12500001
-230.08598 -1549.5007 -20.012501
1526.2078 -763.1134 -20.025
654.1731 -1191.0614 -20.025
1020.5591 259.03125 -20.025
1520.7471 2116.282 -20.025
-269.9884 -1306.3649 -20.012501
-487.21762 1363.1406 -0.013500092
-1066.8967 74.232117 -20.125
-1190.0107 708.98755 -0.1250006
-649.07507 890.45062 -20.125
-219.18036 -1495.6733 -10.341844
1210.2244 -28.215714 -20.025
1194.7705 1660.9153 -20.025
-855.07526 1163.8547 -0.13750076
411.47705 -927.24744 -20.025
-277.75912 -1226.3284 -20.012501
280.81964 1140.3942 -10.612771
-215.9106 -2127.043 -20.0375
1332.6891 -710.09473 -0.025000002
905.33203 441.70447 -16.828527
1216.8973 -5.182663 -20.025
744.32806 831.63086 -0.025
-1334.96 -453.47552 -5.5848489
-890.25757 1218.3557 -0.13750076
-172.91953 -766.1449 -20.025
-493.68732 -730.85999 -0.02500076
353.35699 1542.8798 -20.025
193.41019 -142.31357 -20.125
1126.2836 -1891.3542 -20.025
66.57724 -1937.6296 -0.037500266
1575.8813 -901.67615 -0.025000002
-164.76376 1473.3312 -20.0135
1425.0553 660.34009 -0.025
121.25674 497.60123 -20.000999
1567.2937 1642.0531 -0.025000002
25.361519 251.5556 3.4778401e-07
1527.468 -792.52991 -0.025000002
1092.3785 -200.66158 -20.025
-684.88409 369.08325 -0.12500001
462.00153 1808.115 -0.025000002
1612.8474 -1947.9312 -20.025
74.162842 -477.3515 -0.025
-1402.1882 -1069.7279 -20.112499
41.415855 -1265.2872 -20.025
281.3645 975.53979 -0.025
-1345.0083 -534.73035 -20.112499
-1498.3077 1032.1974 -20.112499
55.704697 1493.5571 -20.0135
588.08826 -971.17065 -3.7999999e-07
-209.68776 1165.0459 -20.000999
-126.32428 -1597.6907 -20.0375
667.18091 935.9325 -0.025
508.05624 1080.1492 -0.025
-1519.1804 1081.004 -2.1381807
832.35345 -1092.0474 -3.7999999e-07
794.38733 -114.16546 -20.000999
429.02045 1619.8533 -0.024999999
-1112.1647 -603.85388 -0.12500001
-1411.3147 -520.47888 -0.12500016
770.15894 1977.3265 -0.024999999
1193.8267 1276.0508 -0.025
275.97495 494.83926 -20.000999
-419.32748 359.14523 -0.0125
699.94513 -1969.8865 -20.025
25.480431 -581.56433 -20.025
-105.81162 -2472.6025 -0.025000002
-1218.937 -921.90009 -0.1125
-106.86952 -1104.6742 -0.037500761
712.05444 2171.1797 -0.025000002
-446.83881 21.711052 12.389246
262.80807 486.46216 -0.001
23.061134 -1322.0032 -20.025
353.17126 666.91602 -20.000999
1043.993 1271.6111 -0.025
174.36865 819.98047 -0.013500761
801.10284 1827.9012 -20.025
-87.08075 -681.09076 -0.025000002
-25.473698 -21.082458 18.983978
1589.0288 -50.944881 -20.025
-507.04306 -1032.4923 -0.0125
816.10608 -2309.1177 -0.025
1492.8624 -1299.5376 -20.025
1396.4558 1895.8269 -20.025
-1488.6697 698.59491 -0.12500058
-470.42719 -550.98132 -20.012501
616.32703 1431.8746 -20.025
821.66577 -877.88348 -20.024998
1582.7028 1907.9482 -20.025
-1063.2029 -251.51376 -0.12500001
1007.1478 -1812.1058 -0.025
-320.17334 2180.7598 -0.025000002
-596.58942 1293.1129 0
171.00235 -861.05939 -20.025
890.83875 1945.1753 -0.025
-1129.1996 -899.14954 -0.1125
487.34573 -2090.6392 -0.025
-82.027245 25.689308 -0.12500001
50.16267 -1129.3699 -0.037500761
1176.4077 -2362.583 -0.025
-562.70392 903.21405 -20
62.327602 126.17043 -20.125
1396.077 1733.1949 -20.025
-1444.0486 -26.28685 -20.125
-170.86174 -2047.9011 -0.037500173
255.20207 132.72987 0
-435.01498 -2102.0725 -0.0125
-1150.2833 1083.9169 -0.1125
-765.14795 -342.14362 -0.12500001
711.36688 -1981.842 -20.025
-311.97308 -2262.5588 -20.025
-165.72038 250 -10.275091
-1357.1227 1126.3569 -20.112499
653.60864 -2401.5813 -0.025
1312.6932 2002.0565 -0.024999999
-60.918518 1314.1422 -0.013500759
-412.63086 -59.447285 -20.125
-1462.021 60.594284 -0.12500001
731.59979 -2693.7163 -20.025
-467.79169 -441.78784 0.012500001
1600.4297 -1378.4882 -0.025
1620.2783 -856.6286 -0.025
422.30005 -1767.7307 -20.025
-578.78711 -1627.7512 -0.0125
1260.005 927.12732 -0.025
-682.34918 -446.89548 -0.125
878.7453 1953.7292 -20.025
1124.085 -249.53024 -0.025
-597.4256 2016.6309 -20.025
1102.2896 -946.52979 -0.025
1574.2864 374.4082 -0.025
-938.64948 302.67154 -20.125
556.68201 -2268.7041 -20.025002
1324.5487 1728.2782 -20.025002
-785.34583 956.22949 -20.125
1376.9094 2235.8491 -20.025
187.44597 -250 -19.688444
-1407.8145 302.99707 -0.12500001
-881.84003 -202.19604 -20.125
930.83032 1982.1183 -20.025
-389.66302 59.804161 -20.125
33.852097 250.37108 -20.012501
-629.82776 -539.74792 -0.12500001
-1427.4216 184.94315 -0.12500001
-619.18042 -586.46204 -16.58461
-72.491318 -2523.7515 -20.025
807.26715 -2505.0066 -0.024999999
164.77936 -2136.449 -20.0375
-1267.3522 -728.84741 -20.112499
1406.9705 775.13501 -0.024999999
-789.74658 1183.8755 -20.125
905.63824 1174.1938 -0.012499239
1158.6794 1089.2441 -20.025
821.86609 -1748.9661 -3.8000002e-07
525.42279 1957.1449 -0.025
-996.65198 -1089.4164 -0.13750076
954.44708 -1150.0269 -20.025
-13.841629 1273.9355 -0.013500761
-1273.5117 316.40958 -0.12500001
580.8197 -383.6098 -10.769881
103.34796 1526.8711 -20.0135
-1419.3503 -18.754875 -0.12500001
-83.17688 -1813.2039 -20.0375
188.15913 411.88281 -20.012501
-672.45514 -852.10083 -20.125
901.55371 -636.93359 -0.01249924
-498.45325 -1876.0969 -0.012500001
-1084.2133 -764.36835 -0.12500001
731.19696 -136.58617 -5.4999998e-07
665.32642 -931.2489 -20.025
200.5826 2009.314 -20.025
80.725098 -353.61212 -6.851086e-07
-1115.8643 404.75751 -0.12500001
-345.69284 -250 -16.093132
-759.58759 -896.42206 -0.13750076
-1473.353 239.26401 -20.125
632.29242 750.38208 -4.4504961e-07
-397.37842 1675.9626 -0.013500001
-363.84778 -662.12317 -0.025000757
60.258835 2139.0425 -20.025
-167.83289 1405.2339 -20.0135
-311.70496 333.20688 -0.0125
-35.203377 1124.1482 -0.013500761
-508.75092 -185.72861 0
-380.81607 -337.05911 10.512499
254.9726 -133.96201 -20.125
766.88684 -980.22888 -3.7999999e-07
1293.0894 -64.286331 -20.025
634.83215 -316.03723 -20.000999
681.16309 638.8728 -20.025
-1508.7045 95.456711 -20.125
1185.8473 -2385.4558 -0.025
514.68054 260.67041 -20.000999
-500.15433 -424.60748 -19.987499
-1273.9401 -1258.9562 -20.112499
1087.3748 1773.6072 -0.025000002
796.39996 177.77217 -20.000999
-278.79535 683.84094 -20
960.18225 -1068.4675 -0.025
422.4422 -48.512207 0.0090002296
-1112.7974 1172.385 -20.125
-772.58325 1082.2416 -0.13750076
1642.5752 -1968.7924 -20.025
1236.4067 697.5697 -0.025
280.81964 -1914.9847 -13.118901
-454.7005 -10.551106 15.255024
-800.73706 1004.661 -20.125
-1413.9794 1246.7306 -0.1125
1060.0768 -2474.3027 -20.025002
432.36618 1722.793 -20.025
555.69678 1877.0627 -20.025002
-1421.8574 -289.89886 -20.125
104.90442 -1242.7645 -0.037500761
-1264.3739 -999.33752 -20.112499
1366.8232 815.94299 -0.025000002
1081.9757 2167.7129 -20.025002
0.69507599 -519.32349 -0.025
107.24452 -1306.1975 -0.037500761
-193.75955 -2597.3892 -20.025
-1358.2559 985.88879 -20.112499
1377.6857 1524.3186 -20.025
-191.12399 -1716.3898 -20.0375
-502.74921 1990.0465 -20.025
721.71582 -321.17386 -20.000999
120.16901 -1992.8423 -0.037500214
-1176.381 -807.99988 -0.1125
-509.80551 1889.6218 -20.025
752.24255 -505.45862 -20.025002
292.58981 -2054.1934 -20.025
-151.99878 -365.89053 -19.987499
1560.2159 -1158.5173 -20.025
643.85803 -1282.344 -20.025
1261.6132 1540.1906 -20.025
-1509.644 510.91122 -20.112499
1498.0343 -1346.2986 -20.025
-707.49634 1097.2211 -0.13750076
-1063.0587 -1149.6372 -0.13750076
-451.08661 907.12341 -20
-169.33728 -2594.9658 -0.025000002
-1519.1804 -438.01062 -1.5825495
457.36414 754.55017 -0.001
-1206.3875 -975.58685 -0.1125
908.3432 -2611.5232 -20.025
-417.06958 -1084.245 -20.012501
-133.48962 -1556.2788 -0.037500586
-509.02722 611.02905 -20
1138.7845 -896.30823 -0.025000002
-1072.7493 1086.5341 -20.125
749.69269 211.71149 -20.000999
767.98346 -1793.261 -20.025
613.53967 1787.6753 -0.025000002
1391.3508 -657.40143 -0.025
1020.8598 1120.2657 -20.025
1247.8441 2241.7043 -13.140592
649.8891 841.0448 -4.1422427e-07
-761.26953 -975.5097 -0.13750076
766.00494 1666.3093 -20.025
42.636326 -2481.6814 -0.025000002
342.80301 567.04791 -20.000999
1143.9578 -2321.1704 -20.024998
-1363.9382 379.39511 -20.125
-496.72742 884.90491 0
1594.2391 1368.5215 -20.025
403.69543 820.01782 -20.000999
830.77014 -724.56274 -3.7999999e-07
-390.18463 -1826.8916 -20.012501
-166.55237 858.4198 -20.000999
1393.2703 -1714.0585 -0.025000002
-1340.2629 -468.86429 -20.112499
120.54547 197.74258 -20.125
-176.37576 1721.8656 -0.0135
812.54266 -2262.585 -20.025
-132.21677 -581.86462 -20.025
-492.34683 -262.89908 0.0125
-743.26703 -542.74213 -20.125
680.81964 -2288.1052 -18.672421
-646.56818 -99.705101 -0.12500001
999.11011 -2716.1348 -0.025
-1156.7001 -1039.6985 -0.1125
186.98405 -161.48167 0
-453.29239 -2182.3674 -0.0125
-201.72905 -1476.3618 -20.0375
1438.8572 -2043.2085 -20.025
-519.90399 1007.47 -20
1344.7047 -1989.2849 -0.025
533.13348 -1386.2245 -0.025
838.34534 -2011.9133 -20.025
41.154251 1572.865 -0.013500219
444.51416 2100.9531 -0.025
-113.02887 359.43576 -20.012501
1511.2303 -2118.7295 -0.025000002
-102.65123 -1712.9254 -20.0375
57.028809 -554.51538 -20.025002
-895.80994 -534.63513 -0.12500001
-159.68398 1015.1917 -20.000999
-1039.7949 887.41895 -20.125
162.20612 655.92126 -0.001
235.22452 -118.93446 -20.125
756.84161 -2676.9678 -0.025
-931.72192 -915.98407 -0.13750076
708.55011 1449.0789 -20.024998
1469.7676 402.15991 -0.025
737.1637 -654.1886 -20.025
240.24048 2106.5586 -20.024998
1109.3563 -2123.3552 -0.025
-961.13562 885.90613 -20.125
1581.1228 1485.2642 -0.025000002
940.98267 375.37668 -20.025
-1239.256 -538.12097 -20.112499
798.39325 710.3952 -20.025
-113.51207 -2058.2981 -20.037498
-1359.7061 -1290.2456 -0.1125
762.02197 463.49329 -3.7999999e-07
-22.851318 1274.2417 -20.000999
-450.89813 -356.67908 -7.5999998e-07
179.60255 -1936.241 -20.0375
770.61658 1662.799 -3.7999999e-07
-214.87994 300.37268 7.5999998e-07
465.216 -2557.4824 -20.025
1657.9673 1855.2258 -0.025
-816.74139 1098.1489 -0.13750076
-706.44885 981.81165 -0.13750076
1180.8196 -1231.3387 -5.6017818
-1021.7656 1235.4628 -20.125
580.81964 1831.186 -7.4635758
-487.91217 213.2661 -20.124998
1225.6569 2188.114 -0.025
16.856888 -990.81213 -0.037500761
580.81958 1612.2034 -8.9772472
-52.048561 -1590.9924 -20.0375
85.635696 838.42572 -20.000999
-844.31238 -798.72192 -0.13750076
1282.1067 1818.8923 -20.025
-182.95982 1898.4734 -20.025
377.65521 -949.26746 -20.025
-186.44652 -183.97995 0
870.02612 1424.9324 -3.8000002e-07
1106.2115 -963.23151 -0.025000002
169.43536 456.84354 -20.000999
-1413.5359 -315.37473 -20.125
-154.06099 -1045.049 -0.037500761
1474.6188 -886.19214 -20.025
1642.2019 -1446.5349 -0.025
-592.98523 -433.29019 -7.5999998e-07
642.06226 1726.6591 -20.025002
-346.01709 258.08521 -20.012501
-4.6628876 -1336.8501 -0.037500761
-15.880104 -682.87988 -20.025
43.914474 -2324.6992 -20.024998
-70.728363 -2490.8 -20.025
-1406.9116 -1004.3882 -0.1125
859.03717 2241.7043 -0.46438593
-713.64722 -612.66956 -20.125
-448.48694 461.46732 -0.012500351
105.45715 1004.798 -20.000999
-1249.005 304.31183 -20.125
1611.2928 367.13467 -0.025000002
1265.7727 1837.5532 -20.025
580.81964 -37.382008 -8.6701889
-494.54831 818.08075 0
1680.8196 2075.574 -9.7176056
-20.478683 476.27814 -0.001
-326.64087 -1350 -1.3670217
-43.501896 -1893.4474 -0.037500303
-600.47522 -831.68835 -0.0125
-550.97009 1096.5336 -20
1394.6223 -2108.7544 -0.025
-1469.7808 -464.84955 -20.112499
1435.3857 454.05295 -0.025
900.22937 -833.9054 -0.01249924
705.76575 457.82593 -0.025
413.67838 2120.3071 -20.025
-1244.1862 1146.2734 -20.112499
1102.6099 -2156.3779 -20.025
1664.5111 1535.2423 -20.025
1517.0906 184.79494 -0.025
96.313263 -251.57031 -19.987499
233.38956 -194.75316 0
880.81964 -499.34412 -1.4019853
854.22998 -2079.0984 -20.025
1655.9949 -624.46283 -20.025
1471.33 -2339.9915 -20.025002
-654.15393 278.96317 -20.125
710.2688 -18.983047 -0.001
-915.39001 -1175.8298 -0.13750076
1642.2957 1945.4923 -0.025
786.6391 -2131.5107 -20.025
-702.46399 1045.6857 -0.13750076
-1217.2855 -61.513905 -20.125
-415.03555 1999.2368 -0.025000002
1379.3539 -1807.2843 -0.025
-758.60992 -338.58762 -20.125
1261.3656 -1904.2474 -0.025
959.03784 -2536.5566 -0.025
826.36023 -458.29553 -16.023111
-200.78493 1570.7634 -0.013500018
-619.18036 -365.61591 -13.374446
581.07434 1289.8828 -20.025
-356.64764 -2680.0608 -0.025
-312.34387 444.37262 -20.012501
1139.2986 -2375.2222 -0.025000002
-1349.6768 253.513 -0.12500001
1364.3264 -1645.7291 -0.025
775.19727 -1517.5308 -3.7999996e-07
-147.96553 1751.4341 -0.0135
-171.86931 1346.6025 -20.000999
-504.685 -693.69287 -20.012501
-1075.5894 851.87793 -20.125
-1114.3701 894.65051 -20.125
231.09132 1721.9125 -20.0135
-476.18848 2180.6462 -0.025000002
100.23505 1807.2687 -20.0135
1090.6078 -642.91541 -0.025000002
-517.50848 1533.3403 -0.013500001
1521.6554 -2358.137 -0.024999999
99.019989 376.43536 -20.012501
-166.74162 -457.46964 -20.025
-557.49353 -1790.4064 -0.0125
1284.5651 1585.59 -0.025000002
1363.6963 -198.68713 -20.025
982.30811 -2268.0586 -20.025002
787.4187 63.497849 -20.000999
-202.01901 1979.2417 -20.025
439.50064 -2407.0217 -0.025
1273.6392 1938.2559 -0.025
269.23987 648.28168 -0.001
-13.011536 16.27832 -20.125
-590.18994 -108.68075 -20.125
-314.2915 986.34973 0
779.26007 486.63348 -20.025
256.96799 280.37161 -20.012501
1328.0903 -2072.6655 -20.025
-821.245 -127.30539 -0.13750076
115.1855 1339.5106 -20.000999
170.81593 1541.1658 -20.0135
1310.0605 1837.8042 -20.025
-479.26672 346.47989 -0.0125
1548.5083 2241.7043 -0.28357944
-1516.3049 -232.54527 -0.13750076
-567.5036 1444.7433 -20.0135
1.5899124 1213.5417 -20.000999
1087.7806 1244.3115 -0.025000002
-279.88162 1421.2797 -0.013500178
-495.76517 -1276.7866 -20.012501
-529.37537 836.86157 0
630.73352 -1303.6887 -3.7999999e-07
-894.90356 -397.31424 -20.125
1423.9893 -229.56201 -20.025
1664.2297 2216.3838 -0.025000002
-73.218132 -1656.0056 -20.0375
1645.3452 1449.0187 -20.025
-1133.8948 615.43481 -20.112499
-532.74414 -302.87216 0.0125
1263.2966 -2596.3877 -20.025
-117.51871 -329.08838 -19.987499
996.95264 1287.5942 -0.024999999
735.18799 -2561.6218 -20.025002
-245.74237 1385.9122 -0.01350026
-1411.5918 600.16681 -0.12500036
-221.58676 487.82703 -20
-1454.5054 905.98907 -0.1125
-294.50433 -2095.3545 -20.012501
1670.0237 135.48901 -20.025
403.74487 -634.10712 -0.024999999
-951.74005 -1024.5532 -0.13750076
957.6192 -2242.8457 -0.025
-1353.8406 -25.197311 -0.12500001
-340.80472 -2623.7949 -0.025000002
524.36615 -614.59009 -0.025000002
1578.3319 -1802.5349 -0.025
-48.962929 -1700.616 -20.0375
411.20218 -1835.8872 -0.024999999
-1137.9203 -765.04407 -0.12500072
199.11531 -1166.8645 -20.025
1630.6407 -1416.5195 -0.025000002
335.42236 -458.29553 -14.998661
-196.106 -1289.96 -20.025
1293.3512 351.95667 -0.025000002
-219.18039 -2245.4316 -3.5925291
48.093155 1733.4512 -20.0135
506.60834 -1559.1459 -20.025
1441.6687 -1053.8286 -20.025
1441.3257 1688.6785 -20.025
-1375.0856 15.489922 -0.12500001
-419.93951 415.38303 -0.0125
1554.7177 1887.177 -0.025
742.27692 1310.3384 -0.025
714.15027 -617.3598 -20.025
459.54324 -567.09576 -0.025000002
-572.95929 -1102.543 -20.012501
602.83478 -358.17078 -20.000999
1075.3654 -2127.0508 -0.025
40.757034 1600.3865 -20.0135
-885.63013 -167.65485 -0.13750076
1030.6973 -1922.733 -20.025
1297.2263 -2279.1641 -20.025
880.81964 985.39386 -0.71211964
-662.66333 -291.68921 -0.125
-300.64523 -4.0504684 18.983978
322.64706 814.86414 -20.000999
849.56555 -1960.7308 -20.025
820.64008 278.32077 -20.000999
374.37769 92.304741 -20.000999
-1366.6554 225.86942 -0.12500001
983.70044 1985.3091 -0.025
-204.67282 -24.894211 12.828171
-1100.8621 -339.21841 -0.12500001
722.33282 -1676.0583 -0.025
-1097.4404 1298.9426 -0.13750076
-837.64124 833.37958 -0.13750076
1561.8335 139.33383 -0.025
469.14883 770.35352 -0.001
175.33836 -2234.6575 -0.037500013
-894.37036 -1261.0889 -0.13750076
-372.09235 -423.7897 -19.987499
-1301.3694 1213.562 -20.112499
534.17224 -2688.5359 -20.025
650.76172 -1313.2466 -20.025
-220.85439 -1981.3395 -20.012501
-1066.7566 -453.47556 -17.289942
1474.7166 292.02423 -20.025
305.74722 -778.32947 -20.025
280.81964 2060 -11.969401
531.30981 1905.0886 -20.024998
791.34253 -333.06555 -20.000999
-1513.6287 146.32823 -20.125
-246.72841 827.43396 0
276.39148 316.04703 -20.012501
587.54626 470.75049 -20.025
-1240.8589 -402.07904 -0.13750076
1506.1958 1959.6176 -0.024999999
-1028.6177 -959.27332 -20.125
-250.15077 1480.2375 -20.0135
-708.09918 -3.6967621 -20.125
-460.61304 -599.10907 -20.012501
953.7121 996.99426 -20.025
361.94092 -2094.1416 -0.025
953.77002 -691.49506 -0.025
770.28302 -1507.4532 -3.7999996e-07
630.30719 -1234.8368 -3.7999999e-07
-295.45483 -145.32343 0
-363.31741 1782.4619 -0.013500001
375.15219 2128.6414 -20.025002
-354.46423 -979.07764 -20.012501
469.77527 -1929.1311 -0.025000002
-486.94229 1374.1984 -20.0135
431.33804 1496.3992 -20.025002
-1518.7898 -1014.0291 -20.112499
-74.744858 2204.8857 -0.025
1287.8081 -1878.7554 -0.025
1180.8196 264.89206 -11.905326
977.95807 -437.12057 -20.025
-468.758 -2535.9265 -20.025
-1307.8206 -473.93378 -20.112499
-175.72337 784.69751 -20.000999
580.81964 -358.80466 -19.80695
-424.30035 -1864.573 -0.0125
80.724014 -0.74242401 -20.125
44.974304 -109.24405 -20.125
-1033.0316 -686.66602 -20.125
244.26939 -1144.704 -0.037500761
616.05762 1766.1974 -20.025
-333.513 -250 -19.097107
1501.4102 -982.81555 -0.025
1463.073 2183.0352 -0.025
253.19438 -2472.5522 -20.025
179.19104 -2124.605 -20.0375
1378.8181 -1235.4143 -20.024998
1013.1932 -352.84488 -20.024998
498.42331 1698.2245 -20.025002
-943.08624 1044.5051 -0.13750076
365.45538 1401.8707 -20.025
1394.3258 2097.0217 -0.025
-1374.0157 -492.09583 -20.112499
1224.6819 -1729.8865 -0.024999999
-1087.8322 406.46606 -0.12500001
-719.27094 -708.35913 -20.125
-87.740631 255.26016 5.2009898e-07
-1022.2363 1175.7281 -0.13750076
1305.3528 2063.52 -0.025
669.25867 1584.3402 -0.025
-71.332367 677.89642 -20.000999
1318.8223 1708.8711 -20.025
-690.59326 735.83881 -0.12500001
-69.730568 208.38364 0
-91.396896 666.84845 -20.000999
191.90405 234.62079 -20.125
-406.89923 -1982.3846 -0.012499999
-969.18555 -97.704041 -20.125
-1073.8092 -521.68372 -20.125
651.28668 1191.3639 -20.025
-1493.1775 105.51241 -0.12500001
-818.6756 -649.21283 -0.12500001
115.27972 -2280.8074 -20.025002
-492.63696 -1015.9441 -20.012501
622.23438 754.5047 -20.025
737.58765 -1703.9712 -0.025000002
-351.73227 -231.68805 -20.125
-264.43735 -488.96155 -20.012501
-272.27582 -486.86005 -0.025000185
-179.54701 -623.95306 -20.025
599.11359 1033.7754 -3.7999999e-07
-787.81213 1013.7 -20.125
612.83093 -2284.9683 -0.025
181.98244 2098.2407 -20.025
-166.8746 -2560.2236 -0.025000002
349.80469 1413.2706 -20.025
-724.34717 806.68976 -20.125
-619.18036 -2167.2004 -1.0403239
-482.62128 -2457.1006 -0.025
-754.28918 439.45239 -0.12500001
220.06627 -2466.4441 -0.025
1667.2509 -2126.0637 -0.025
1669.3711 -28.197159 -0.025
800.28973 -2631.2388 -20.024998
-554.98773 -1040.9155 -20.012501
-277.57364 1561.2145 -0.0135
-1119.1804 -498.80768 -18.398151
165.59384 1320.6187 -20.000999
-1124.6392 -266.02167 -0.12500001
-516.97235 2104.6055 -0.025000002
347.82971 1925.9244 -0.025000002
240.24167 -617.38 -0.025
-561.21289 450 -16.877724
347.41174 1406.8635 -0.025
1559.0546 -2270.0713 -20.025
-590.50458 -1017.9951 -0.0125
638.05237 2181.7859 -0.025
721.32373 2165.6201 -20.025
-143.1106 1882.0569 -20.025
80.298927 -1311.6681 -20.025
1431.6489 -2336.3699 -0.025
1458.9791 352.24435 -0.025
-289.09711 1730.1792 -20.0135
1633.4069 -233.8259 -20.025
-1519.1804 -963.43091 -12.824087
-1475.0652 1227.4036 -0.1125
-120.77469 1946.4043 -0.025
1063.2047 -2566.791 -0.025
-856.87048 930.82727 -0.13750076
938.58887 2137.2031 -20.025
-958.2738 -856.50323 -0.13750076
-809.88391 -384.61557 -20.125
-867.92053 677.33759 -20.125
751.50055 1155.3787 -0.025000002
-595.711 -2006.5724 -0.0125
-126.13762 1393.9458 -0.01350035
1271.8188 -1581.2249 -0.025
-565.18909 -8.3743515 0
805.02148 1328.2273 -3.7999999e-07
-13.294549 -2627.0945 -0.025
1080.1234 -1977.071 -0.025
-862.69519 -433.30313 -0.13750076
1421.3196 2022.2686 -20.025002
1056.8387 263.92755 -20.025
-537.8316 1567.616 -0.013500001
1168.7739 967.70258 -20.025
1311.7891 859.04889 -0.025
859.19476 2203.7524 -0.025000002
280.81964 1655.572 -4.738637
-814.38953 1345.9504 -0.13750076
1048.6494 -2190.7937 -20.025
-493.11703 1429.3669 -20.0135
1576.1625 -2317.5259 -20.025
-630.664 790.17145 -20.125
1092.5856 -133.04646 -0.025000002
280.81964 -545.56909 -16.030132
117.23656 287.63953 4.4549603e-07
-940.7713 757.94934 -20.125
993.84009 1997.7279 -0.025
-216.13091 2208.6897 -0.025000002
-541.85675 2010.6823 -0.025
1672.9728 2037.2476 -20.025
1103.9988 -2252.9153 -20.025
927.7865 -1671.5392 -0.025
-807.65735 -225.08719 -0.13750076
324.4397 2233.2161 -20.025
-895.56702 -13.759781 -20.125
483.71982 422.4231 -0.0010000002
-207.45065 436.94208 7.5999998e-07
-1410.2365 1259.6787 -0.1125
-869.75714 247.74026 -20.125
-894.42267 -645.94647 -20.125
752.16174 1740.1711 -20.025002
872.55853 1707.6326 -3.7999999e-07
-122.61797 64.15448 -20.125
-354.74908 1288.054 0
34.955769 -1822.1809 -0.037500359
-431.53464 -2098.7234 -20.012501
135.87659 -972.6864 -20.025
1028.8422 1162.7617 -0.025000002
-213.64392 957.66888 -20.000999
-272.9483 -71.770065 0
1627.6506 -739.46265 -0.025
452.6991 2113.1526 -0.024999999
-436.8877 856.86481 0
1194.036 1180.3015 -0.025
-1129.5825 790.63879 -20.112499
-616.64771 595.5542 -20
746.97791 536.07092 -20.025
1365.1028 2175.5508 -0.025
-300.56427 214.11841 -20.125
-149.75824 41.191147 0
-51.930618 420.09158 7.5999992e-07
197.36853 10.582893 -20.125
-325.22043 -752.34857 -0.025000758
912.13049 -36.720596 -20.025
1075.4508 -995.88843 -0.025
588.89679 1341.0348 -3.7999999e-07
297.72714 1533.8721 -0.025
-749.77423 -872.95239 -0.13750076
-222.36639 12.695713 4.4246902
-50.333591 -295.302 -19.987499
1646.9032 2231.4136 -20.025002
570.50427 1187.7697 -0.012499239
880.81958 935.43536 -11.68761
1107.1611 1442.0482 -0.025
-74.876945 -144.63795 -20.125
-200.39798 -50.056381 -20.125
-569.28986 -52.546589 -0.12500001
-190.25128 -770.23138 -0.025
710.08655 -920.05457 -20.025
-963.3374 -52.447006 -20.125
-541.02594 438.70837 -20.012501
-293.84488 -447.04529 -19.987499
1288.803 -2526.481 -20.025
1476.3727 -2577.1406 -0.025000002
-1382.7645 974.26868 -0.1125
1442.6418 2099.6311 -20.025
400.88855 -596.21338 -0.025
1281.3699 354.87878 -0.025
1680.2454 -2216.9458 -0.025
1091.801 -1211.9977 -0.025
-591.22516 250 -17.973604
20.377312 -649.3429 -0.025
-533.47125 290.96948 -0.012500001
1178.3687 -2709.8174 -20.025002
-375.92493 -1030.9084 -0.0125
-649.61896 -1189.5764 -20.125
703.70471 -571.00421 -20.025
-200.40704 -1285.1669 -20.025
-509.1861 1316.233 -20
-546.22839 1075.3246 -20
1668.9728 -1002.9306 -20.025
-1497.8597 105.82467 -0.12500001
-1200.7551 929.01019 -20.112499
-477.52188 -956.04749 -0.012500001
364.23636 1527.5374 -20.025
439.18829 -2566.2471 -0.025000002
-72.44989 262.3623 5.4302916e-07
-219.18037 -2652.7397 -14.477124
354.22144 -2485.6792 -20.025002
129.01471 1357.5972 -20.0135
785.50537 -1562.7275 -3.7999999e-07
-1452.9128 -139.04665 -0.125
1546.0312 -2680.0762 -20.025
241.40012 -639.57159 -0.025000002
35.783169 -1956.5219 -20.0375
-1341.4846 -839.16724 -0.1125
251.52669 -2404.2964 -20.025
-280.88467 -734.87927 -0.02500076
1101.9989 1319.4586 -20.024998
-60.997574 -2250 -0.6322149
-435.25647 1452.844 -20.0135
-380.79596 935.11823 -20
1526.3159 441.70447 -14.442318
-269.31909 -1342.0013 -0.0125
496.20331 259.92346 0.0090002296
1652.228 1866.4128 -0.024999999
-159.64105 -1859.4333 -20.0375
-1495.9015 -390.49854 -0.13750076
-652.28979 1030.2651 -0.13750076
-188.93954 548.87537 -20.000999
-228.86566 1666.2072 -20.0135
-442.04352 237.52322 -0.12500001
971.08856 -2577.4292 -20.025
1161.4368 -174.03139 -0.025
963.73962 1104.7316 -0.025
-1064.5562 -708.03754 -0.12500001
-1284.2372 -229.00183 -20.125
664.74622 -1315.6442 -0.025
-166.62367 -2170.6902 -20.0375
-217.27592 638.75452 -0.001
-296.34021 360.68198 -20.012501
-253.26814 -1185.8319 -0.0125
-540.21759 -450 -12.873835
-525.30737 -2578.1077 -0.025
844.77087 -1102.2771 -20.025
1582.2461 -975.42322 -20.025
94.840958 602.22125 -20.000999
-701.1651 -863.53894 -20.125
1328.5944 -2628.4268 -20.025
1418.8274 2211.438 -0.025
1567.7456 -383.26807 -20.025
805.98737 58.727879 -5.4999998e-07
-600.95264 332.67126 -0.0125
-1519.1804 -571.91992 -2.7612658
49.812866 -2398.1492 -0.025
880.81958 1834.3723 -3.0883131
1545.3555 1954.0984 -0.025
-437.59778 -468.32697 -20.012501
1149.3932 -1454.4503 -20.025
-1119.1804 974.47742 -13.805126
-1261.7557 1318.3292 -20.112499
-619.18036 -2538.0015 -19.205709
1143.2474 -2420.2085 -20.025002
-1317.6362 184.89276 -0.12500001
-156.08432 -1486.9545 -0.037500646
-1141.5042 740.83319 -20.112499
588.13208 -1320.7548 -3.7999999e-07
1548.7462 263.91321 -0.025000002
1418.4568 2114.4136 -20.025
1261.3357 1908.4275 -20.025
-274.94366 0.25946045 3.4252186
-962.29156 1345.4604 -20.125
-288.6358 -1849.1061 -20.012501
719.20654 -830.05627 -0.025
1645.2997 -2122.2241 -20.025
182.215 1842.668 -0.0135
-122.33554 -915.38074 -0.037500761
11.267197 -2373.7119 -20.025
-1519.1804 -1073.1425 -6.2366319
1172.1289 1226.5022 -20.025
-632.9726 -831.3457 -0.13750076
-1238.4082 -163.15762 -0.12500001
-1265.2776 181.70193 -0.12500001
1145.3859 248.32938 -20.025
585.95935 636.7901 -20.025
-1021.6288 678.38135 -20.125
-885.25281 -862.38416 -0.13750076
1617.2235 1906.9237 -20.025
1380.2749 852.99866 -0.025
732.39569 1427.2507 -20.024998
-1172.4983 -202.3344 -0.13750076
1446.9435 2052.8071 -20.025
1190.9535 895.8927 -0.025
-347.50754 -1190.53 -20.012501
-132.11147 -2567.54 -0.025
-314.30099 1515.6758 -0.013500005
-174.23431 384.82318 7.5999998e-07
-1518.5542 -725.74719 -0.12500063
-489.23355 317.50723 -0.0125
-585.35577 -1967.4154 -0.012500001
-277.30414 330.10904 -20.012501
1443.874 460.15802 -0.025
-1486.9885 -1303.719 -20.112499
-1177.3273 895.46625 -20.112499
1663.8295 1941.6833 -20.025002
-175.50931 2186.7014 -0.025000002
-400.62921 1913.7019 -0.025000002
832.4823 194.42633 -20.000999
617.48944 -339.70914 -20.000999
853.29449 2140.0972 -0.025
-332.57233 1177.4429 -20
-787.06311 1032.7074 -0.13750076
-1250.624 595.14099 -0.12500034
-611.31641 280.48401 -0.0125
606.48389 35.837692 -5.4999998e-07
-66.882408 1166.3459 -20.000999
673.68372 -1109.7987 -20.025
459.74884 -1426.6741 -20.025
16.229263 750.57617 -0.0010000002
560.03607 -484.16797 -20.025
-1385.9963 907.95514 -0.1125
513.86102 -166.95905 0.0090002296
-898.96777 -1274.4272 -0.13750076
471.30862 -2258.0874 -0.025
1149.1603 -2666.1833 -0.025
-119.62272 -2722.856 -20.025
-1154.8381 1181.2056 -0.1125
743.83325 419.72366 -5.4999998e-07
-331.55765 -2314.0222 -20.025
1591.6665 305.0614 -20.025
295.33862 1281.0449 -0.025
-1113.7103 576.50623 -0.12500001
-140.5206 1286.6951 -20.000999
1302.7913 -2205.6685 -0.025
1444.4691 -2574.3696 -20.025
-1190.2784 -1068.8176 -20.112499
1287.7336 1341.7045 -16.270866
-505.16968 542.13666 -20
-161.9819 797.87939 -20.000999
199.90572 1564.6428 -20.0135
1577.6616 1841.4646 -0.025000002
500.82758 314.41656 0.0090002296
325.29987 1019.5513 -0.025
421.96387 -2479.9395 -20.025
-186.29416 -1683.9598 -20.037498
782.11914 208.12 -20.000999
1316.8784 1409.1929 -0.025
-611.16901 966.3725 -20
729.12231 -2514.4629 -0.025
-254.42653 -758.36694 -20.012501
1103.6268 1652.9124 -0.025000002
-1043.0875 -1328.4624 -20.125
-1511.7819 -134.86841 -0.12500001
1312.6421 -467.36798 -0.025
867.99512 1306.3958 -3.7999999e-07
1218.0077 2038.5288 -20.025
-1469.2542 657.3017 -0.12500048
-789.88867 -489.84839 -0.12500001
-372.21432 893.06891 -20
455.62585 -2456.5288 -0.025000002
1122.4735 2083.8228 -20.025
129.09718 1597.6094 -20.0135
371.50455 -2586.1868 -20.025
350.98743 -93.212097 -20.000999
334.67505 635.55792 -20.000999
1021.871 -2072.0505 -0.025000002
-863.37769 1289.7529 -20.124998
1034.1925 1568.4363 -0.025
-535.46893 694.03265 -20
-1364.2255 -551.07886 -0.12500024
-228.48746 -997.59607 -0.0125
-93.426201 268.94305 -20.012501
-1519.0822 878.67896 -0.1125
1435.7236 -1990.1338 -20.025
-318.38599 1957.7522 -0.025
841.28754 1841.7045 -3.342947
-530.65723 1196.7113 -20
661.89954 -2302.5828 -20.025
-414.09039 -2652.9707 -0.025000002
-862.51508 848.07312 -0.13750076
1119.0303 -248.06667 -20.025
424.49918 2160.8945 -20.025
1645.3521 238.87851 -20.025
-75.638855 1504.9224 -0.013500223
-1107.9589 625.58813 -0.12500001
-1264.702 -1155.3171 -20.112499
-585.70929 677.3598 -0.012500579
390.60126 -492.33423 -0.025
1028.3385 1252.1821 -20.025
1004.5992 2010.2407 -20.025
770.60645 -2509.2954 -0.025
560.92249 109.51328 0.011500759
-238.77371 1222.0258 -20
1519.6791 -1570.3213 -0.025
-523.06189 85.151596 -0.12500001
-1362.0645 -511.35931 -20.112499
1584.9209 -1344.0007 -20.025
-821.39734 -1159.683 -0.13750076
-1163.9097 601.61377 -20.112499
280.81964 -346.74609 -5.2544727
670.99011 1976.3435 -0.024999999
-1351.0005 678.73785 -20.112499
-0.99668884 -69.974236 -20.125
-1329.1082 -791.59448 -20.112499
-274.05707 -1083.8403 -20.012501
948.04431 -694.59546 -0.025
-190.86572 397.72137 7.5999998e-07
318.60278 137.8826 0.0090002296
1409.572 -1143.7012 -20.025
570.18787 -848.33026 -0.012499239
-523.7019 -150.04706 0
1017.574 -2055.1987 -20.025
32.961998 -1513.0222 -20.037498
1441.2097 -1981.6499 -0.025000002
-308.9917 83.778236 21.063805
1621.8511 1478.3767 -20.025
1400.2356 -2381.6914 -0.025
868.55042 1756.1941 -3.7999999e-07
-48.39436 1679.2502 -0.013500001
-1272.2762 765.53943 -0.12500073
54.624382 -708.12238 -20.025
760.44531 -2258.2957 -14.840342
1639.5016 -1209.3187 -20.025
377.02277 925.30249 -0.001
1530.3501 -1160.1597 -20.025
-641.82697 191.9272 -0.12500001
1091.4304 -2465.5024 -0.025
-817.42877 -327.82831 -20.125
948.29565 1355.6429 -0.025000002
274.21735 2032.9385 -0.025
-1374.3256 582.18219 -20.112499
-152.98103 -655.98767 -0.025
-932.73401 -1211.4945 -0.13750076
1243.2722 1059.8726 -0.025
-940.4209 29.459763 -20.125
-275.64606 472.48761 -0.012500703
-738.47107 597.7876 -0.12500001
-418.43973 515.97418 -20
83.881958 429.33881 -0.012499999
644.8432 718.43079 -4.5591304e-07
745.78198 -149.01006 -20.000999
344.7475 -176.02269 -20.000999
-333.54865 -1939.149 -20.012501
440.05762 -1706.5692 -20.025
877.74561 19.873837 -20.000999
-484.53223 -733.17932 -20.012501
-831.1748 932.3338 -20.125
403.37677 -1664.5471 -0.025
-209.14456 -1243.4729 -0.037500761
361.3804 1946.2996 -20.025
507.34958 -2532.2676 -20.025
-784.81628 942.08911 -20.125
643.7168 101.24948 -5.4999998e-07
1522.3494 -2606.3425 -0.025
-927.49658 -377.55658 -20.125
366.88687 -1630.7119 -0.025
1348.286 1700.6285 -20.025
-775.15808 -191.0349 -20.125
1012.1622 -1095.8329 -0.024999999
735.85718 45.873169 -0.00099999993
-390.64938 -250 -17.498777
-551.52472 -2421.3723 -0.025000002
-127.00585 180.68387 -20.125
-1512.0557 157.33495 -0.12500001
1296.0349 -1256.4093 -20.025
680.81964 -2504.7075 -14.517853
257.58633 2250 -7.0839276
38.284115 -1932.7872 -20.037502
-691.34485 -656.87982 -20.125
-162.01352 -1298.6747 -20.025
-1081.5643 -1149.6301 -0.13750076
1288.988 -364.31229 -20.024998
-1119.1804 -758.13281 -5.8317461
-26.252293 -1061.0321 -0.037500761
232.20364 -330.84058 -4.981232e-07
1077.4502 2230.2212 -20.025
417.97549 252.94778 0.0090002287
1438.8866 -2054.5972 -0.025
-14.094755 25.000002 13.190176
-1119.1804 -724.27747 -13.203073
-836.12762 725.07495 -20.125
-1063.5356 435.38217 -20.125
525.30829 -346.66263 0.0090002296
447.27148 -2460.3867 -0.025000002
619.44336 1338.3907 -20.025
-1044.3871 446.52441 -17.553448
1312.4594 -1942.6401 -0.025
-255.77762 708.00299 -20
-1141.1654 664.51288 -0.12500051
-159.90826 -1322.3328 -0.037500761
1192.8607 -1917.592 -0.025
580.81964 110.98158 -13.079372
1059.5706 -2540.9502 -0.025
793.03979 -2006.0493 -20.025
-165.53032 -2606.6851 -0.025
-0.61932373 -776.5351 -20.025
866.33545 1841.7046 -17.233135
1476.5312 -1747.9393 -20.025
60.950462 850.72662 -20.000999
380.68878 1671.9692 -0.025000002
308.94565 -2503.7104 -0.025
934.40076 -909.22815 -0.025
-755.052 421.51556 -0.12500001
911.49768 -1299.6135 -20.025
-645.51636 203.12878 -20.125
-325.27216 1877.5649 -0.024999999
1175.2255 1132.3109 -0.025
731.49902 1354.8879 -0.025
767.55811 -2258.2957 -0.55159205
-114.79822 -1225.8866 -0.037500761
1405.6873 -2680.1335 -0.025
-1380.4565 377.62903 -20.125
1664.0312 -214.21713 -0.025
254.88058 1779.0779 -20.0135
-971.11743 -669.01709 -0.12500001
-429.71469 2103.8804 -0.025
628.83551 -485.04227 -4.2704443e-07
-474.88406 -250 -15.647171
34.261665 1904.551 -20.025
1318.7172 448.01263 -0.024999999
280.81964 -1532.991 -15.779109
-1414.6863 -790.87378 -20.112499
647.3772 441.70447 -19.268312
-10.519196 -215.32135 -20.125
-1258.4009 -1002.8446 -20.112499
160.16605 1598.0205 -0.013500281
-459.0585 -2527.2444 -0.025
912.51276 -194.34048 -20.025
663.13928 723.71362 -20.025
-1049.3921 1062.0149 -20.125
-1289.9672 1220.5804 -0.1125
1361.9116 1486.4617 -0.025000002
442.90143 -148.86053 0.0090002296
-501.82639 938.63239 -20
130.80058 -871.09534 -0.037500761
-1490.5377 408.50073 -20.125
-297.12549 1572.2535 -0.013499999
-1513.9653 -357.86517 -20.125
1533.2351 -2140.4429 -0.025
547.992 -2217.231 -0.01249924
-723.85852 1183.2998 -20.125
344.10632 152.95657 -20.000999
-277.21692 -222.82101 0
958.23553 2070.5815 -20.025
886.8197 -663.06458 -0.012499239
-942.89349 1133.0662 -0.13750076
-1498.7037 487.52878 -0.12500012
-172.72169 714.51624 -20.000999
-613.38757 -623.73132 -0.025000762
-1392.9447 452.40128 -0.12500003
-846.77527 326.28314 -0.12500001
-935.50238 955.60626 -20.125
-131.46274 1752.8988 -20.0135
1140.5475 -2677.1592 -20.025
1123.2803 -858.24463 -0.025
514.46008 -1923.1345 -0.025
355.5101 1102.4894 -0.025
751.96765 -784.90588 -20.025002
-1441.7279 -675.73816 -0.12500051
-1318.8096 596.55597 -0.12500036
-1322.0389 1073.8876 -0.1125
-289.60812 -2311.8286 -20.025
-562.84998 -898.85797 -20.012501
-405.67654 1852.2839 -0.025
1651.83 -1637.9814 -0.025000002
-415.38367 -71.223427 -20.125
-657.38031 -734.97974 -20.125
1585.3458 -1037.462 -0.025000002
-186.68176 63.49189 0
1464.4828 220.56396 -20.025
-1120.7625 245.51639 -20.125
364.46857 1444.5022 -0.025000002
246.5717 794.24707 -20.000999
1132.2384 -1039.9928 -20.025
8.8325882 871.28577 -0.01350076
402.99213 -486.32184 -0.025
1401.687 -2114.427 -20.025
323.29108 -2250 -6.0829568
-596.39545 427.58917 -20.012501
-110.9958 -1078.5574 -0.037500761
1508.7505 313.99664 -0.024999999
-773.86731 597.87177 -20.125
798.91559 -1118.9458 -3.7999999e-07
1680.6278 1947.5731 -20.025
482.13354 749.06329 -0.001
-1501.3484 -1116.1412 -20.112499
-86.470016 -13.272339 -20.125
1251.1384 1374.01 -0.025
-225.73309 242.78853 0
-111.84437 51.114075 -20.125
-1482.7677 440.87924 -0.12500001
-457.60001 -17.850042 -0.12500001
-1363.4766 -361.96167 -0.13750076
-563.43585 -1090.1012 -20.012501
-1082.399 295.4494 -0.12500001
-134.58374 723.28235 -0.001
-281.8504 -269.49237 -7.5999998e-07
-288.76648 1045.1029 -20
-557.06757 -961.9173 -0.0125
1140.6921 182.23383 -20.025
-2.3826447 -2136.6138 -20.0375
-1119.1804 -1188.2673 -1.6554033
-1330.0309 938.18726 -20.112499
920.92346 1886.953 -20.025
1500.1125 -1276.2672 -20.025
152.85344 2198.3667 -20.025002
1566.6812 1371.251 -0.025000002
-735.84619 312.71313 -0.12500001
2.757267 -2594.0471 -0.025
-102.73447 -1348.0979 -0.037500761
99.163757 -2431.4409 -0.025
1528.3015 1345.467 -20.025
-484.86249 -1814.7209 -0.0125
-1313.6179 795.28979 -0.1125
-591.75293 -1712.8151 -0.012500001
1306.9744 2151.9495 -0.025
-190.38879 1665.3225 -20.0135
-156.60213 1137.5038 -20.000999
-927.85791 962.50781 -20.125
1005.6158 -81.765236 -20.025
1106.4368 1258.8134 -0.025
1278.188 2000.1641 -20.025
1603.5731 1477.8733 -0.025
-1412.2864 674.59357 -20.112499
-731.59491 483.24918 -0.12500001
387.64999 284.42639 0.0090002296
-208.612 1204.632 -0.01350076
360.60754 -2467.2358 -20.025
897.96838 1366.8829 -0.012499239
-634.0365 -167.68144 -0.12500001
-108.99178 -662.32941 -0.025
-564.77161 -648.92334 -0.02500076
-1124.046 -1151.9775 -20.112499
118.43762 195.14874 0
526.29443 0.57532501 0.0090002296
-495.03223 -788.47656 -0.0125
532.77106 1256.6648 -0.025
280.81964 1765.8157 -17.523636
-403.88025 1947.3138 -20.025
-663.27856 -548.97778 -20.125
-991.84387 -1198.3069 -0.13750076
-281.38861 1057.8468 -20
933.14844 -144.08835 -20.024998
-1213.2804 983.77271 -20.112499
1670.9507 1738.5205 -20.025
488.2915 -804.41577 -0.025000002
341.84741 -1653.0372 -0.024999999
957.453 -1163.4171 -20.025
-384.30743 -662.0517 -0.025000762
-676.27148 587.7124 -0.12500001
-289.70657 -1974.8337 -20.012501
117.07295 -650.65619 -20.025
1058.4934 -939.04468 -0.025
-862.68433 864.38757 -0.13750076
1348.1672 -127.19543 -20.025
900.70911 1301.3379 -0.012499239
59.543419 2094.0183 -20.025
-1421.4771 -1083.1074 -0.1125
868.7251 -1389.5742 -3.7999999e-07
-248.45 1808.6632 -20.0135
-306.63812 -2265.1699 -20.025002
-486.78436 1351.4475 -0.013500108
-370.13306 -2056.4597 -0.0125
-331.79706 -2165.709 -0.012499999
-155.13641 1520.3999 -20.0135
881.87177 -1152.7765 -0.01249924
1147.2506 -1567.9866 -20.024998
-887.13843 333.00131 -20.125
-596.72632 1001.9825 0
-1265.1655 -573.80389 -0.12500028
14.159561 1306.448 -20.000999
-271.35559 -1233.0732 -0.0125
-63.024376 -2460.5232 -20.025
-1119.1804 -517.25751 -7.8464489
1649.8411 441.70447 -2.0761001
542.56628 1671.7424 -0.025000002
-270.07208 2.4371986 3.4252186
875.29858 -1846.1273 -20.025
518.54492 1985.0432 -20.025
-370.76276 -845.8739 -0.0125
-547.1192 1937.2781 -0.025
-933.88837 496.87415 -20.125
-46.035637 -210.23512 0
332.41425 1092.2507 -0.025
523.82996 -2484.2827 -20.025
1575.7197 -1818.8182 -0.025000002
1274.0979 -2725.946 -20.025
188.02884 -841.17767 -0.037500761
-870.06403 -1193.4495 -20.125
-80.788589 -384.82083 -19.987499
621.07349 -2158.7261 -0.025000002
573.36688 -1688.3644 -0.01249924
746.52148 765.2962 -0.025
86.640335 1780.6624 -0.013500001
-515.7002 273.31152 -0.0125
-1257.4948 1032.9247 -20.112499
1557.9362 100.14801 -20.025
1443.7501 -2736.0134 -0.025
-467.23669 695.2489 -0.01250076
1308.8033 484.41269 -0.025
16.103668 757.62451 -0.001
-1255.3566 -117.79913 -20.125
364.77869 923.08423 -0.001
261.10464 -1353.4182 -20.0375
97.030609 -1204.6343 -20.025
-51.280746 -2120.5017 -0.037500113
580.81964 -589.8913 -17.548252
-142.71739 279.57098 -20.012501
868.87 -1578.2306 -3.7999999e-07
-323.94952 915.94531 -20
1479.8042 -2268.2495 -20.025
-554.67731 1103.0789 0
-619.18036 -881.16595 -3.2106886
-1067.5437 836.89514 -20.125
-267.63876 -1558.4514 -20.012501
788.86719 -2031.7449 -3.7999996e-07
-451.81424 1033.3715 0
-70.21907 -351.59164 -7.5999998e-07
683.3667 678.84625 -20.025
1348.7627 359.48578 -20.025
-81.135429 -500.93494 -0.025
1180.8196 1446.552 -18.952763
649.03485 -2369.1416 -0.025000002
273.94189 1071.2847 -20.000999
580.81964 -2159.3726 -3.5025258
259.64563 -1162.5156 -0.037500761
1473.182 1531.4989 -20.025
-1353.7241 1227.4861 -0.1125
1595.1697 428.72305 -20.025
567.44977 1410.6165 -0.01249924
267.92429 -1536.7996 -20.0375
1290.4774 306.62415 -0.024999999
-96.266785 -2494.9058 -0.025000002
217.44489 1086.0421 -20.000999
1672.3923 1366.5873 -0.025
-1060.8099 -402.5787 -20.125
-215.81906 24.75 34.381432
1190.9312 1449.7252 -0.025
-1430.5217 962.84229 -0.1125
-1138.9924 487.92102 -0.1250001
1051.4164 -2061.7825 -20.025
732.14612 -1577.7878 -0.025
-58.807419 -337.09033 -7.5999992e-07
-20.355646 1811.302 -20.0135
1319.4739 841.76227 -0.025
1197.2371 1809.4569 -20.025002
1557.719 -2481.416 -20.025
198.68629 2215.6289 -0.025
1413.3505 894.13391 -0.025
-447.88287 -394.06247 -7.5999998e-07
476.6427 1010.3264 -0.025000002
-396.82709 -2675.3794 -0.025000002
80.212753 -1292.2476 -0.037500761
530.05536 -2258.1384 -0.025000002
-83.724327 2185.8684 -20.025
212.3656 -1810.8596 -20.0375
-258.62802 -527.83063 -20.012501
228.94545 507.51367 -0.001
528.26318 188.29158 0.0090002287
1111.799 1883.615 -0.025
941.71448 -2254.4863 -20.025002
-1009.2039 -509.11792 -0.12500001
535.61273 -2492.4766 -0.024999999
1346.1281 1540.551 -0.024999999
1510.1492 2057.3955 -0.025
971.99286 1543.925 -0.025
-1519.1804 -1019.1127 -2.2224605
679.53284 87.643364 -20.000999
847.6676 -1499.9474 -20.024998
1118.1705 -558.26752 -0.025
839.89294 -376.9487 -20.000999
-234.51405 15.416637 40.012432
467.59604 -1688.6179 -20.025
-1071.438 -880.37402 -20.125
1168.5681 -2337.4834 -0.025
-809.67175 1094.8927 -0.13750076
1584.2898 1556.3982 -20.024998
-556.10602 763.47595 -20
-1157.9766 -467.95468 -20.112499
-80.316002 248.36111 -20.125
-738.0343 -593.99255 -20.125
550.93579 2236.0879 -0.025000002
730.37366 -2504.1841 -20.025
1455.4429 -2224.1765 -0.025
842.18213 700.30438 -20.024998
-401.86932 2182.219 -20.025002
-554.02942 -1091.1825 -0.0125
731.27704 1476.3489 -20.025002
-36.86581 -1114.0665 -20.025
108.28238 -1201.6117 -0.037500761
-1046.132 1098.1161 -0.13750076
99.604355 300.08774 5.4453295e-07
524.46252 1637.1379 -0.025
-135.70877 -479.0827 -20.025
316.94705 1620.2207 -20.025
1576.7911 -37.790089 -20.024998
-1420.9307 -428.3031 -20.125002
-430.23886 1785.5442 -0.0135
-809.23175 1187.1851 -0.13750076
316.38455 -1941.0762 -20.025
276.65735 1772.55 -20.0135
-160.88908 2248.9224 -20.025
-360.95898 288.60748 -20.012501
677.72906 -312.17831 -0.001
-278.89471 -214.78183 0
-1027.4404 405.67926 -0.12500001
718.73694 -2138.8923 -20.025
-1034.9956 861.52545 -0.13750076
680.81964 -2364.8455 -8.4318256
-1152.8152 -1285.1532 -0.1125
389.41718 1071.3099 -0.025
514.69196 1546.7548 -0.025
-908.82629 -440.69144 -20.125
143.24934 -970.7431 -0.037500761
1545.7402 -935.62769 -20.025
1435.834 1421.822 -20.025
-366.95404 -1128.3236 -0.012499999
833.01501 -656.36462 -3.7999999e-07
-925.90399 1161.2026 -0.13750076
1162.0793 1161.8049 -0.025
503.38263 1686.2312 -0.024999999
-1284.5508 -1206.7263 -20.112499
-1464.787 -237.80019 -20.125
-619.18036 72.954735 -13.302262
556.29279 266.16824 0.01150076
1680.8196 -837.75903 -9.1465178
-232.58493 660.84839 -0.012500761
-503.24683 1655.0989 -0.0135
441.56665 -1411.6982 -0.025000002
1243.5115 -2259.8572 -0.024999999
-1447.04 188.5835 -20.125
